# .PCD v0.7 - Point Cloud Data file format
VERSION 0.7
FIELDS x y z intensity time
SIZE 4 4 4 4 4
TYPE F F F F F
COUNT 1 1 1 1 1
WIDTH 1063
HEIGHT 1
VIEWPOINT 0 0 0 1 0 0 0
POINTS 1063
DATA ascii
2.7690001 1.082 -1.526 12.048703 0.048702795
2.766 1.087 -1.526 12.048713 0.048712812
2.7590001 1.09 -1.524 11.048723 0.048722826
2.7579999 1.094 -1.525 12.048733 0.048732847
2.756 1.099 -1.525 12.048743 0.048742864
2.7590001 1.1059999 -1.527 11.048753 0.048752882
2.753 1.109 -1.525 11.048763 0.048762895
2.75 1.113 -1.524 11.048773 0.048772912
2.7479999 1.117 -1.524 11.048783 0.04878293
2.747 1.122 -1.524 11.048793 0.048792951
2.7520001 1.1289999 -1.527 12.048803 0.048802964
2.75 1.133 -1.527 11.048813 0.048812982
2.75 1.138 -1.527 14.048823 0.048822999
2.75 1.143 -1.527 14.048833 0.048833016
2.7460001 1.146 -1.525 11.048843 0.048843034
2.7490001 1.151 -1.526 12.048853 0.048853051
2.753 1.158 -1.529 11.048863 0.048863068
2.7449999 1.159 -1.524 9.0488729 0.048873086
2.75 1.166 -1.526 9.0488834 0.048883103
2.753 1.171 -1.527 8.048893 0.048893116
2.7509999 1.175 -1.525 8.0489035 0.048903134
2.7590001 1.182 -1.529 8.048913 0.048913151
2.76 1.187 -1.529 9.0489235 0.048923172
2.7639999 1.193 -1.53 10.048933 0.048933186
2.7639999 1.197 -1.529 10.048944 0.048943203
2.77 1.204 -1.531 9.0489531 0.04895322
2.7679999 1.207 -1.528 8.0489635 0.048963238
2.7690001 1.211 -1.527 8.0489731 0.048973255
2.779 1.2180001 -1.53 8.0489836 0.048983272
2.7809999 1.223 -1.53 9.0489931 0.048993289
2.7839999 1.228 -1.529 9.0490036 0.049003307
2.7880001 1.233 -1.529 9.0490131 0.049013324
2.7939999 1.239 -1.531 10.049024 0.049023338
2.802 1.2460001 -1.533 10.049033 0.049033355
2.8080001 1.252 -1.533 11.049044 0.049043372
2.8099999 1.256 -1.5319999 10.049053 0.049053393
2.8180001 1.262 -1.534 10.049064 0.049063407
2.819 1.266 -1.5319999 10.049073 0.049073424
2.8280001 1.272 -1.533 10.049084 0.049083441
2.8329999 1.277 -1.533 10.049093 0.049093459
2.8399999 1.283 -1.533 10.049104 0.049103476
2.8410001 1.286 -1.531 10.049113 0.049113493
2.855 1.295 -1.534 10.049124 0.049123511
2.865 1.302 -1.536 10.049133 0.049133528
2.8670001 1.304 -1.534 10.049144 0.049143545
2.878 1.311 -1.535 10.049153 0.049153559
2.8870001 1.317 -1.536 10.049164 0.049163576
2.891 1.321 -1.534 10.049173 0.049173597
2.904 1.329 -1.5369999 10.049184 0.049183615
2.911 1.334 -1.536 10.049193 0.049193628
2.9170001 1.3380001 -1.535 9.0492039 0.049203645
2.928 1.344 -1.536 10.049213 0.049213663
2.9400001 1.351 -1.538 10.049224 0.04922368
2.9519999 1.358 -1.539 11.049233 0.049233697
2.961 1.363 -1.539 11.049244 0.049243715
2.974 1.37 -1.541 11.049253 0.049253732
2.9779999 1.373 -1.538 10.049264 0.049263749
2.9909999 1.3789999 -1.539 9.0492735 0.049273767
3.0120001 1.39 -1.544 9.049284 0.04928378
3.023 1.395 -1.544 10.049294 0.049293797
3.0309999 1.399 -1.543 10.049304 0.049303818
3.04 1.404 -1.541 9.0493135 0.049313836
3.052 1.41 -1.5420001 8.049324 0.049323849
3.0680001 1.4170001 -1.544 9.0493336 0.049333867
3.0829999 1.424 -1.545 9.0493441 0.049343884
3.095 1.429 -1.545 9.0493536 0.049353901
3.108 1.4349999 -1.545 10.049364 0.049363919
3.1240001 1.442 -1.546 11.049374 0.049373936
3.135 1.446 -1.545 11.049384 0.049383953
3.1500001 1.4529999 -1.546 12.049394 0.049393971
3.1700001 1.461 -1.549 12.049404 0.049403988
3.1800001 1.465 -1.5470001 12.049414 0.049414001
3.1960001 1.471 -1.548 12.049424 0.049424019
3.2090001 1.476 -1.5470001 11.049434 0.04943404
3.2249999 1.482 -1.5470001 11.049444 0.049444057
3.2420001 1.489 -1.548 11.049454 0.049454071
3.2620001 1.4960001 -1.55 10.049464 0.049464088
3.2780001 1.502 -1.55 10.049474 0.049474105
3.299 1.51 -1.552 10.049484 0.049484123
3.3139999 1.515 -1.551 10.049494 0.04949414
3.325 1.517 -1.548 11.049504 0.049504157
3.3570001 1.53 -1.556 12.049514 0.049514174
3.3729999 1.535 -1.5549999 12.049524 0.049524192
3.3959999 1.543 -1.557 12.049534 0.049534209
3.4170001 1.55 -1.558 12.049544 0.049544223
3.4330001 1.5549999 -1.557 10.049554 0.049554244
3.46 1.564 -1.5599999 9.0495644 0.049564261
3.4809999 1.5700001 -1.561 9.0495739 0.049574278
3.5 1.576 -1.561 10.049584 0.049584292
3.5209999 1.582 -1.561 9.0495939 0.049594309
3.5450001 1.59 -1.563 10.049604 0.049604326
3.5699999 1.597 -1.5650001 12.049614 0.049614344
3.585 1.6 -1.562 12.049624 0.049624361
3.6070001 1.6059999 -1.562 12.049634 0.049634378
3.6340001 1.615 -1.5650001 11.049644 0.049644396
3.6589999 1.622 -1.566 10.049654 0.049654413
3.6819999 1.628 -1.566 10.049664 0.04966443
3.7079999 1.635 -1.568 12.049674 0.049674444
3.734 1.642 -1.569 14.049685 0.049684465
3.7550001 1.646 -1.567 15.049694 0.049694482
3.7809999 1.654 -1.569 14.049705 0.0497045
3.8110001 1.6619999 -1.571 14.049714 0.049714513
3.835 1.6670001 -1.5700001 13.049725 0.04972453
3.865 1.675 -1.572 12.049734 0.049734548
3.8840001 1.678 -1.5700001 11.049745 0.049744565
3.915 1.686 -1.572 11.049754 0.049754582
3.9430001 1.693 -1.572 12.049765 0.0497646
3.974 1.7 -1.574 12.049774 0.049774617
4.006 1.7079999 -1.576 12.049785 0.049784634
4.0339999 1.714 -1.576 12.049794 0.049794652
4.0650001 1.721 -1.577 13.049805 0.049804665
4.0949998 1.727 -1.5779999 13.049814 0.049814686
4.125 1.733 -1.5779999 13.049825 0.049824703
4.1479998 1.737 -1.576 13.049834 0.049834721
4.1960001 1.75 -1.5829999 13.049845 0.049844734
4.2249999 1.755 -1.582 13.049854 0.049854752
4.2540002 1.76 -1.581 13.049865 0.049864769
4.29 1.768 -1.5829999 13.049875 0.04987479
4.3319998 1.778 -1.587 13.049885 0.049884804
4.369 1.786 -1.5880001 13.049895 0.049894821
4.402 1.7920001 -1.5880001 14.049905 0.049904838
4.441 1.8 -1.59 14.049915 0.049914856
4.473 1.8049999 -1.59 14.049925 0.049924873
4.513 1.813 -1.592 14.049935 0.049934886
4.553 1.821 -1.594 14.049945 0.049944907
4.5970001 1.83 -1.596 15.049955 0.049954925
4.6399999 1.8380001 -1.599 15.049965 0.049964942
4.6820002 1.846 -1.6 14.049975 0.049974956
4.71 1.849 -1.598 14.049985 0.049984973
4.7540002 1.857 -1.599 14.049995 0.04999499
4.796 1.864 -1.601 14.050005 0.050005008
4.8410001 1.872 -1.603 14.050015 0.050015025
4.8839998 1.8789999 -1.604 14.050025 0.050025038
4.934 1.8890001 -1.607 14.050035 0.050035059
4.9689999 1.892 -1.605 14.050045 0.05004508
5.026 1.904 -1.61 15.050056 0.050055094
5.0770001 1.913 -1.613 15.050065 0.050065111
5.1220002 1.919 -1.613 15.050076 0.050075125
5.1680002 1.926 -1.614 15.050085 0.050085146
5.2179999 1.934 -1.6160001 15.050096 0.05009516
5.2709999 1.943 -1.619 16.050106 0.050105177
5.3189998 1.949 -1.619 16.050116 0.050115198
5.3720002 1.957 -1.6210001 15.050125 0.050125211
5.4239998 1.964 -1.622 15.050136 0.050135233
5.4819999 1.974 -1.626 15.050145 0.050145246
5.5349998 1.9809999 -1.627 17.050156 0.050155263
5.5900002 1.989 -1.628 16.050165 0.050165284
5.6500001 1.998 -1.631 16.050175 0.050175298
5.7150002 2.0079999 -1.635 14.050185 0.050185315
5.7519999 2.0090001 -1.63 12.050196 0.050195329
5.842 2.027 -1.641 13.050205 0.05020535
5.8940001 2.0320001 -1.64 16.050215 0.050215364
5.9549999 2.04 -1.642 15.050225 0.050225385
6.0149999 2.0469999 -1.642 17.050236 0.050235402
6.0869999 2.0580001 -1.647 18.050245 0.050245415
6.131 2.059 -1.643 16.050255 0.050255436
6.1999998 2.0680001 -1.646 14.050265 0.05026545
6.2779999 2.0799999 -1.65 14.050276 0.050275467
6.3340001 2.0840001 -1.649 14.050285 0.050285481
6.4050002 2.0929999 -1.651 14.050296 0.050295502
6.4840002 2.1040001 -1.656 14.050305 0.050305523
6.5430002 2.1070001 -1.654 14.050316 0.050315537
6.6300001 2.1199999 -1.66 15.050325 0.050325554
6.7059999 2.1289999 -1.6619999 16.050335 0.050335567
6.7789998 2.1359999 -1.663 15.050345 0.050345588
6.8600001 2.145 -1.666 15.050356 0.050355606
6.9499998 2.1570001 -1.671 15.050365 0.050365619
7.0380001 2.168 -1.674 16.050375 0.05037564
7.112 2.174 -1.675 16.050386 0.050385654
7.204 2.1849999 -1.679 16.050396 0.050395675
7.2849998 2.191 -1.6799999 16.050406 0.050405689
7.3639998 2.198 -1.6799999 16.050415 0.050415706
7.4699998 2.2119999 -1.686 17.050426 0.050425727
7.559 2.22 -1.688 18.050436 0.050435741
7.6700001 2.233 -1.694 17.050446 0.050445758
7.757 2.24 -1.6950001 16.050455 0.050455771
7.8590002 2.25 -1.698 16.050467 0.050465792
7.954 2.2579999 -1.7 17.050476 0.050475806
8.0649996 2.27 -1.705 16.050486 0.050485827
8.1730003 2.28 -1.7079999 18.050495 0.050495844
8.276 2.289 -1.71 17.050507 0.050505858
8.3909998 2.3 -1.714 17.050516 0.050515879
8.493 2.3069999 -1.715 17.050526 0.050525893
8.6330004 2.323 -1.723 18.050535 0.05053591
8.743 2.3310001 -1.725 18.050547 0.050545931
8.8879995 2.348 -1.733 18.050556 0.050555944
8.993 2.3529999 -1.733 20.050566 0.050565965
9.1309996 2.3659999 -1.738 20.050575 0.050575979
9.2460003 2.3729999 -1.739 21.050587 0.050585996
9.3760004 2.3829999 -1.742 21.050596 0.05059601
9.5129995 2.3940001 -1.7460001 20.050606 0.050606031
9.6540003 2.405 -1.75 19.050615 0.050616048
9.7939997 2.415 -1.753 21.050627 0.050626062
9.9469995 2.427 -1.758 20.050636 0.050636083
10.112 2.4419999 -1.765 21.050646 0.050646096
10.258 2.4519999 -1.767 21.050655 0.050656117
10.417 2.4630001 -1.771 22.050667 0.050666131
10.576 2.474 -1.775 23.050676 0.050676148
10.733 2.483 -1.778 20.050686 0.050686169
10.907 2.4960001 -1.7819999 18.050695 0.050696183
11.086 2.5090001 -1.7869999 18.050707 0.0507062
11.27 2.5220001 -1.793 17.050716 0.050716214
11.447 2.5320001 -1.796 18.050726 0.050726235
11.642 2.5450001 -1.801 19.050735 0.050736256
11.841 2.5580001 -1.806 18.050747 0.05074627
12.036 2.569 -1.8099999 17.050756 0.050756287
12.229 2.579 -1.813 15.050766 0.0507663
12.414 2.586 -1.814 16.050776 0.050776321
12.646 2.602 -1.821 15.050786 0.050786335
12.844 2.609 -1.822 14.050797 0.050796352
13.049 2.6170001 -1.823 15.050806 0.050806373
13.258 2.6240001 -1.825 20.050816 0.050816387
13.505 2.638 -1.831 17.050827 0.050826408
13.738 2.648 -1.8329999 15.050837 0.050836422
13.993 2.661 -1.8380001 15.050846 0.050846439
14.248 2.6719999 -1.842 14.050857 0.050856452
14.525 2.6860001 -1.847 13.050866 0.050866473
14.807 2.7 -1.853 15.050877 0.050876491
15.086 2.711 -1.857 14.050886 0.050886504
15.429 2.7320001 -1.867 12.050897 0.050896525
15.765 2.75 -1.876 13.050906 0.050906539
16.084999 2.7639999 -1.882 11.050917 0.05091656
16.438999 2.7820001 -1.8890001 11.050926 0.050926577
16.809 2.8 -1.898 11.050937 0.050936591
17.149 2.812 -1.901 11.050946 0.050946612
17.559 2.8329999 -1.9119999 11.050957 0.050956625
17.976999 2.8529999 -1.9220001 11.050966 0.050966643
18.395 2.8710001 -1.929 11.050977 0.050976656
18.823999 2.888 -1.937 11.050986 0.050986677
19.302999 2.911 -1.948 12.050997 0.050996698
19.778999 2.9300001 -1.957 10.051006 0.051006712
20.316999 2.9560001 -1.97 9.0510168 0.051016729
20.823 2.974 -1.978 9.0510263 0.051026743
21.400999 3 -1.9910001 9.0510368 0.051036764
21.999001 3.0250001 -2.0039999 9.0510464 0.051046778
22.665001 3.056 -2.02 8.0510569 0.051056795
22.679001 2.997 -1.978 9.0510664 0.051066816
23.542999 3.05 -2.0079999 8.0510769 0.051076829
24.422001 3.098 -2.036 9.0510864 0.05108685
25.257999 3.1370001 -2.0569999 8.0510969 0.051096864
26.325001 3.2 -2.0940001 8.0511065 0.051106881
27.139 3.227 -2.108 8.0511169 0.051116902
28.311001 3.2909999 -2.145 9.0511265 0.051126916
29.35 3.3329999 -2.168 9.051137 0.051136933
30.639 3.3970001 -2.2049999 9.0511465 0.051146947
31.815001 3.4419999 -2.23 8.051157 0.051156968
33.846001 3.5710001 -2.3099999 8.0511665 0.051166981
35.136002 3.6140001 -2.3329999 7.051177 0.051177002
35.966999 3.6029999 -2.3210001 3.051187 0.05118702
36.952999 3.602 -2.316 5.0511971 0.051197033
0 0 0 0.051207054 0.051207054
0 0 0 0.051217068 0.051217068
0 0 0 0.051227085 0.051227085
0 0 0 0.051237099 0.051237099
0 0 0 0.05124712 0.05124712
55.494999 4.5100002 -2.8659999 11.051257 0.051257141
55.867001 4.3909998 -2.7850001 24.051268 0.051267155
55.868 4.2389998 -2.684 47.051277 0.051277172
55.759998 4.0799999 -2.5780001 82.051285 0.051287185
55.620998 3.918 -2.471 135.0513 0.051297206
55.84 3.7820001 -2.3800001 78.051308 0.051307224
55.896999 3.635 -2.2839999 83.051315 0.051317237
55.971001 3.4879999 -2.187 80.051331 0.051327258
56.144001 3.345 -2.0929999 62.051338 0.051337272
63.425999 3.6059999 -2.2520001 75.051346 0.051347293
63.528999 3.4400001 -2.145 70.051361 0.051357307
63.749001 3.2780001 -2.039 50.051369 0.051367324
70.963997 3.454 -2.145 66.051376 0.051377345
71.164001 3.2690001 -2.026 49.051388 0.051387358
85.857002 3.7079999 -2.2939999 73.051399 0.051397376
85.953003 3.48 -2.1489999 73.051407 0.051407389
86.18 3.2520001 -2.0039999 48.051418 0.05141741
93.653 3.276 -2.016 48.051426 0.051427424
101.212 3.2620001 -2.003 45.051437 0.051437445
0 0 0 0.051447462 0.051447462
0 0 0 0.051457476 0.051457476
0 0 0 0.051467497 0.051467497
0 0 0 0.05147751 0.05147751
0 0 0 0.051487528 0.051487528
0 0 0 0.051497541 0.051497541
0 0 0 0.051507562 0.051507562
0 0 0 0.051517583 0.051517583
0 0 0 0.051527597 0.051527597
0 0 0 0.051537614 0.051537614
0 0 0 0.051547628 0.051547628
0 0 0 0.051557649 0.051557649
0 0 0 0.051567666 0.051567666
0 0 0 0.05157768 0.05157768
0 0 0 0.051587701 0.051587701
0 0 0 0.051597714 0.051597714
0 0 0 0.051607735 0.051607735
0 0 0 0.051617749 0.051617749
90.469002 -1.842 1.0880001 51.051628 0.051627766
79.043999 -1.832 1.079 53.05164 0.051637787
71.497002 -1.858 1.0930001 44.051647 0.051647801
62.785999 -1.808 1.062 77.051659 0.051657818
62.543999 -1.975 1.158 37.051666 0.051667832
62.549 -2.152 1.2589999 33.051678 0.051677853
62.535999 -2.3280001 1.359 41.051689 0.051687866
62.546001 -2.5050001 1.46 35.051697 0.051697887
62.554001 -2.6830001 1.5599999 32.051708 0.051707905
62.562 -2.858 1.659 42.05172 0.051717918
62.578999 -3.0369999 1.7589999 31.051727 0.051727939
62.569 -3.214 1.859 33.051739 0.051737953
62.562 -3.392 1.957 42.051746 0.05174797
62.553001 -3.569 2.056 32.051758 0.051757991
63.234001 -3.786 2.177 61.051769 0.051768005
56.497002 -3.5439999 2.033 21.051779 0.051778026
56.195999 -3.6860001 2.1099999 44.051788 0.05178804
56.055 -3.8369999 2.1930001 56.0518 0.051798057
55.986 -3.993 2.277 67.051811 0.05180807
55.960999 -4.1500001 2.362 78.051819 0.051818091
55.971001 -4.3109999 2.4489999 66.051826 0.051828109
56.014999 -4.4759998 2.5369999 61.051838 0.051838122
56.162998 -4.6479998 2.628 52.051849 0.051848143
63.743 -5.4559999 3.0799999 81.051857 0.051858157
63.744999 -5.6409998 3.177 89.051865 0.051868178
63.727001 -5.8239999 3.273 93.05188 0.051878192
63.727001 -6.0079999 3.3699999 89.051888 0.051888209
63.720001 -6.1929998 3.4660001 90.051895 0.05189823
63.754002 -6.3790002 3.563 85.05191 0.051908243
63.737 -6.5619998 3.658 83.051918 0.051918261
63.743 -6.7490001 3.7539999 84.051926 0.051928274
63.763 -6.9369998 3.8510001 84.051941 0.051938295
63.747002 -7.119 3.944 84.051949 0.051948316
63.611 -7.29 4.0300002 79.051956 0.05195833
63.264999 -7.4359999 4.1009998 70.051971 0.051968347
63.011002 -7.5910001 4.178 70.051979 0.051978361
62.673 -7.7319999 4.2470002 65.051987 0.051988382
62.610001 -7.908 4.3340001 69.052002 0.051998395
62.591 -8.0909996 4.4239998 71.05201 0.052008413
62.584999 -8.2720003 4.5139999 66.052017 0.052018434
62.595001 -8.4580002 4.6059999 69.052025 0.052028447
62.594002 -8.6440001 4.6960001 67.05204 0.052038468
62.625 -8.8339996 4.789 65.052048 0.052048482
62.826 -9.0489998 4.8940001 72.052055 0.052058499
63.091 -9.2720003 5.0040002 75.052071 0.052068513
63.162998 -9.4709997 5.0999999 82.052078 0.052078534
63.285999 -9.6780005 5.1999998 93.052086 0.052088551
63.247002 -9.8610001 5.2859998 95.052101 0.052098565
63.231998 -10.045 5.3730001 94.052109 0.052108586
63.320999 -10.25 5.4699998 95.052116 0.052118599
62.747002 -10.345 5.5079999 96.052132 0.05212862
63.263 -10.621 5.6420002 97.052139 0.052138638
63.455002 -10.844 5.7470002 88.052147 0.052148651
14.569 -2.533 1.339 17.052158 0.052158672
14.44 -2.5550001 1.347 39.05217 0.052168686
14.179 -2.5510001 1.342 59.052177 0.052178703
14.005 -2.562 1.345 67.052185 0.052188717
13.86 -2.5780001 1.35 52.0522 0.052198738
13.742 -2.598 1.357 47.052208 0.052208759
13.631 -2.6170001 1.364 46.052219 0.052218772
13.5 -2.6329999 1.369 46.052227 0.05222879
13.361 -2.6470001 1.372 51.052238 0.052238803
13.22 -2.6589999 1.375 48.05225 0.052248824
13.042 -2.664 1.374 55.052258 0.052258838
12.908 -2.675 1.377 98.052269 0.052268855
12.76 -2.684 1.378 150.05228 0.052278876
12.678 -2.7060001 1.386 75.052292 0.05228889
12.519 -2.71 1.385 74.052299 0.052298911
13.022 -2.859 1.457 110.05231 0.052308924
13.061 -2.908 1.478 150.05232 0.052318942
13.089 -2.9549999 1.498 108.05233 0.052328963
13.094 -2.9960001 1.515 98.052338 0.052338976
13.096 -3.0369999 1.5319999 90.052345 0.052348994
13.093 -3.0780001 1.548 84.052361 0.052359007
13.102 -3.1210001 1.566 84.052368 0.052369028
13.106 -3.1630001 1.5829999 86.052376 0.052379042
13.108 -3.204 1.599 85.052391 0.052389063
13.105 -3.244 1.615 87.052399 0.05239908
13.101 -3.2839999 1.63 85.052406 0.052409094
13.104 -3.326 1.647 86.052422 0.052419115
13.103 -3.3670001 1.663 86.052429 0.052429128
13.101 -3.408 1.678 86.052437 0.052439146
13.101 -3.448 1.694 86.052452 0.052449159
13.106 -3.4909999 1.71 87.05246 0.05245918
13.107 -3.533 1.726 86.052467 0.052469201
13.077 -3.5669999 1.737 50.052479 0.052479215
12.983 -3.582 1.74 49.05249 0.052489232
12.908 -3.602 1.745 50.052498 0.052499246
12.843 -3.625 1.751 62.052509 0.052509267
12.795 -3.6530001 1.7589999 61.052521 0.052519284
12.75 -3.681 1.767 55.052528 0.052529298
12.602 -3.678 1.761 46.05254 0.052539319
12.467 -3.6789999 1.756 42.052547 0.052549332
12.331 -3.6789999 1.75 43.052559 0.052559353
12.188 -3.675 1.743 42.05257 0.052569367
12.069 -3.678 1.739 42.052578 0.052579384
11.928 -3.674 1.732 42.052589 0.052589405
11.809 -3.675 1.727 45.052601 0.052599419
11.685 -3.674 1.722 42.052608 0.052609436
11.559 -3.6719999 1.716 41.05262 0.05261945
11.444 -3.6730001 1.71 41.052628 0.052629471
11.338 -3.675 1.706 50.052639 0.052639484
11.225 -3.675 1.7 49.05265 0.052649505
11.117 -3.6760001 1.6950001 51.052658 0.052659523
11.017 -3.6789999 1.691 54.05267 0.052669536
10.903 -3.6760001 1.684 54.052681 0.052679557
10.791 -3.674 1.678 52.052689 0.052689571
10.69 -3.674 1.673 52.0527 0.052699588
10.587 -3.6730001 1.6670001 55.052711 0.052709609
10.489 -3.674 1.661 55.052719 0.052719623
10.39 -3.6730001 1.656 60.052731 0.052729644
10.301 -3.6760001 1.651 61.052738 0.052739657
10.214 -3.678 1.647 59.05275 0.052749675
10.117 -3.677 1.64 58.052761 0.052759688
10.022 -3.675 1.6339999 57.052769 0.052769709
9.9320002 -3.675 1.628 57.05278 0.052779727
9.8520002 -3.677 1.624 57.052792 0.05278974
9.7679996 -3.6789999 1.618 57.052799 0.052799761
9.6879997 -3.681 1.613 56.052811 0.052809775
9.6070004 -3.681 1.608 56.052818 0.052819796
9.5179996 -3.6789999 1.601 55.05283 0.052829809
9.4399996 -3.6800001 1.596 54.052841 0.052839827
9.3660002 -3.6819999 1.591 54.052849 0.052849848
9.2919998 -3.684 1.586 53.05286 0.052859861
9.2130003 -3.6830001 1.58 52.052872 0.052869879
9.1269999 -3.6789999 1.572 52.052879 0.052879892
9.0530005 -3.6789999 1.566 51.052891 0.052889913
8.9890003 -3.6830001 1.561 50.052898 0.052899927
8.9119997 -3.681 1.5549999 49.05291 0.052909948
8.8529997 -3.6860001 1.551 49.052921 0.052919965
8.7779999 -3.684 1.544 48.052929 0.052929979
8.71 -3.6849999 1.538 48.05294 0.05294
8.6479998 -3.687 1.533 47.052952 0.052950013
8.5760002 -3.6849999 1.526 46.052959 0.052960031
8.5080004 -3.684 1.5190001 47.052971 0.052970052
8.4569998 -3.6900001 1.515 47.052979 0.052980065
8.3920002 -3.6889999 1.5089999 47.05299 0.052990086
8.335 -3.6919999 1.5039999 45.053001 0.0530001
8.2770004 -3.694 1.498 43.053009 0.053010117
8.2229996 -3.697 1.493 43.05302 0.053020131
8.1610003 -3.6960001 1.487 42.053032 0.053030152
8.099 -3.6949999 1.48 45.05304 0.053040169
8.0489998 -3.6989999 1.475 46.053051 0.053050183
7.9860001 -3.6960001 1.467 48.053059 0.053060204
7.9359999 -3.6989999 1.462 46.05307 0.053070217
7.8759999 -3.697 1.455 48.053082 0.053080238
7.8200002 -3.697 1.448 46.053089 0.053090252
7.7690001 -3.698 1.442 46.053101 0.053100269
7.71 -3.6949999 1.434 46.053112 0.05311029
7.6630001 -3.697 1.429 47.05312 0.053120304
7.6079998 -3.6960001 1.4220001 45.053131 0.053130321
7.5609999 -3.698 1.416 46.053139 0.053140335
7.4980001 -3.6919999 1.4069999 43.05315 0.053150356
7.4569998 -3.6960001 1.402 44.053162 0.053160377
7.4070001 -3.6949999 1.395 42.053169 0.05317039
7.3600001 -3.6949999 1.388 47.053181 0.053180408
7.316 -3.697 1.382 47.053192 0.053190421
7.2670002 -3.6960001 1.375 48.0532 0.053200442
7.2210002 -3.6949999 1.368 46.053211 0.053210456
7.1789999 -3.697 1.362 46.053219 0.053220473
7.1350002 -3.697 1.355 45.05323 0.053230494
7.0960002 -3.6989999 1.349 42.053242 0.053240508
7.0630002 -3.7049999 1.344 40.053249 0.053250529
7.0279999 -3.7090001 1.339 39.053261 0.053260542
7.0149999 -3.723 1.337 39.053272 0.05327056
7.006 -3.7409999 1.337 38.05328 0.053280573
7.0009999 -3.76 1.336 40.053291 0.053290594
7.0009999 -3.7820001 1.337 40.053299 0.053300612
6.9949999 -3.8 1.336 39.05331 0.053310625
6.993 -3.8210001 1.336 41.053322 0.053320646
6.9970002 -3.845 1.337 41.053329 0.05333066
7.0009999 -3.868 1.3380001 43.053341 0.053340681
7.0019999 -3.8900001 1.3380001 41.053352 0.053350698
7.006 -3.9130001 1.339 41.05336 0.053360712
7.007 -3.9349999 1.339 40.053371 0.053370733
7.0149999 -3.96 1.34 41.053379 0.053380746
7.02 -3.984 1.34 39.053391 0.053390764
7.0289998 -4.0100002 1.341 39.053402 0.053400777
7.0110002 -4.02 1.336 38.05341 0.053410798
6.9889998 -4.0279999 1.331 28.053421 0.053420819
6.9590001 -4.0310001 1.324 22.053431 0.053430833
6.9369998 -4.0380001 1.318 9.053441 0.05344085
6.915 -4.0450001 1.313 0.053450864 0.053450864
7.5339999 -4.428 1.428 18.053461 0.053460885
8.2069998 -4.8470001 1.554 20.053471 0.053470898
8.2469997 -4.8930001 1.559 17.05348 0.053480916
8.2589998 -4.9229999 1.559 14.053491 0.053490937
8.2679996 -4.9510002 1.558 12.053501 0.05350095
8.2869997 -4.9850001 1.558 10.053511 0.053510971
8.3219995 -5.0279999 1.562 9.0535212 0.053520985
8.3249998 -5.052 1.559 9.0535307 0.053531002
8.3599997 -5.0949998 1.562 8.0535412 0.053541023
8.3669996 -5.1209998 1.5599999 6.0535512 0.053551037
8.3570004 -5.1360002 1.554 4.0535612 0.053561054
8.3500004 -5.1529999 1.549 4.0535712 0.053571068
8.3979998 -5.204 1.554 3.053581 0.053581089
8.3979998 -5.2249999 1.549 2.053591 0.053591102
8.3730001 -5.2290001 1.54 1.0536011 0.053601123
8.3959999 -5.2639999 1.54 0.053611141 0.053611141
8.4379997 -5.3109999 1.5420001 0.053621154 0.053621154
10.826 -6.8390002 1.972 20.053631 0.053631175
10.852 -6.8800001 1.97 21.05364 0.053641189
10.882 -6.9239998 1.9680001 20.053652 0.053651206
10.919 -6.973 1.967 19.053661 0.05366122
10.959 -7.0219998 1.967 19.053671 0.053671241
11.002 -7.0739999 1.967 18.05368 0.053681262
11.05 -7.1269999 1.967 18.053692 0.053691275
11.092 -7.178 1.966 18.053701 0.053701293
11.137 -7.23 1.965 18.053711 0.053711306
11.188 -7.2849998 1.966 18.05372 0.053721327
11.238 -7.3400002 1.965 17.053732 0.053731345
11.309 -7.408 1.9680001 17.053741 0.053741358
11.36 -7.4629998 1.967 17.053751 0.053751379
11.424 -7.526 1.9680001 16.053761 0.053761393
11.499 -7.5960002 1.97 15.053771 0.053771414
11.565 -7.6599998 1.97 14.053782 0.053781427
11.644 -7.7309999 1.973 15.053791 0.053791445
11.746 -7.8189998 1.979 17.053801 0.053801466
11.836 -7.8990002 1.982 26.053812 0.053811479
11.88 -7.947 1.977 36.053822 0.053821497
11.886 -7.9689999 1.966 46.053833 0.05383151
11.865 -7.9710002 1.95 51.053841 0.053841531
11.836 -7.9689999 1.933 52.053852 0.053851545
11.814 -7.9710002 1.916 50.05386 0.053861566
11.794 -7.973 1.9 50.053871 0.053871583
11.772 -7.973 1.8839999 51.053883 0.053881597
11.75 -7.973 1.867 51.05389 0.053891618
11.726 -7.9699998 1.849 50.053902 0.053901631
11.716 -7.9770002 1.834 51.053913 0.053911649
11.679 -7.9650002 1.814 50.053921 0.05392167
11.672 -7.9710002 1.799 51.053932 0.053931683
11.661 -7.9759998 1.783 51.05394 0.053941704
11.646 -7.9759998 1.766 51.053951 0.053951718
11.628 -7.974 1.75 48.053963 0.053961735
11.616 -7.9749999 1.733 49.05397 0.053971749
11.597 -7.9710002 1.715 49.053982 0.05398177
11.584 -7.9699998 1.698 50.053993 0.053991787
11.58 -7.9749999 1.683 50.054001 0.054001801
11.563 -7.9710002 1.665 49.054012 0.054011822
11.557 -7.973 1.649 50.054024 0.054021835
11.552 -7.9749999 1.632 52.054031 0.054031856
11.54 -7.9720001 1.614 53.054043 0.05404187
11.529 -7.9689999 1.598 51.05405 0.054051887
11.531 -7.974 1.582 48.054062 0.054061908
11.54 -7.9840002 1.566 38.054073 0.054071922
11.569 -8.007 1.554 27.054083 0.054081939
11.538 -7.987 1.534 21.054092 0.054091953
11.604 -8.0340004 1.526 11.054102 0.054101974
11.693 -8.0959997 1.52 5.054112 0.054111995
12.215 -8.4580002 1.571 38.054123 0.054122008
12.741 -8.8219995 1.62 63.054131 0.054132026
13.109 -9.0760002 1.647 70.054146 0.054142039
13.118 -9.0790005 1.6289999 70.054153 0.05415206
13.116 -9.0749998 1.609 69.054161 0.054162074
13.116 -9.0710001 1.59 69.054169 0.054172091
13.114 -9.066 1.5700001 69.054184 0.054182112
13.108 -9.0570002 1.55 71.054192 0.054192126
13.116 -9.0570002 1.5319999 71.054199 0.054202147
13.109 -9.0450001 1.511 68.054214 0.05421216
13.114 -9.0419998 1.492 69.054222 0.054222178
13.112 -9.033 1.472 68.05423 0.054232191
13.113 -9.0249996 1.452 70.054245 0.054242212
13.113 -9.0159998 1.432 68.054253 0.05425223
13.126 -9.0150003 1.413 67.05426 0.054262243
13.136 -9.0120001 1.395 62.054272 0.054272264
13.144 -9.0059996 1.376 48.054283 0.054282278
13.193 -9.0270004 1.36 27.054293 0.054292299
13.257 -9.0579996 1.347 14.054302 0.054302316
13.523 -9.2259998 1.353 17.054312 0.05431233
14.492 -9.8719997 1.428 7.0543222 0.054322351
14.633 -9.9519997 1.42 1.0543324 0.054332364
54.237 -36.824001 5.1789999 62.054344 0.054342382
54.251999 -36.769001 5.0970001 61.054352 0.054352395
54.263 -36.708 5.0180001 55.054363 0.054362416
54.266998 -36.639999 4.934 44.054371 0.054372437
54.249001 -36.554001 4.849 31.054382 0.054382451
54.261002 -36.486 4.7670002 19.054392 0.054392468
56.289001 -37.769001 4.8629999 66.054405 0.054402482
56.276001 -37.675999 4.776 70.054413 0.054412503
56.282001 -37.592999 4.691 69.05442 0.054422516
56.291 -37.509998 4.6059999 69.054436 0.054432534
56.283001 -37.411999 4.52 66.054443 0.054442555
56.313 -37.339001 4.441 53.054451 0.054452568
56.390999 -37.292999 4.362 43.054462 0.054462589
56.526001 -37.283001 4.2880001 31.054472 0.054472603
42.209 -27.763 3.1389999 9.0544825 0.05448262
42.333 -27.766001 3.085 17.054493 0.054492634
42.470001 -27.775999 3.0320001 20.054502 0.054502655
42.622002 -27.792999 2.98 19.054512 0.054512672
42.733002 -27.782 2.928 18.054523 0.054522686
42.827999 -27.757999 2.872 17.054533 0.054532707
42.953999 -27.750999 2.819 16.054543 0.05454272
43.166 -27.798 2.77 17.054552 0.054552741
43.299 -27.795 2.717 21.054564 0.054562759
43.513 -27.837999 2.6689999 92.054573 0.054572772
43.592999 -27.792999 2.612 67.054581 0.054582793
43.713001 -27.771999 2.5580001 15.054593 0.054592807
43.865002 -27.768999 2.5050001 17.054604 0.054602824
44.040001 -27.780001 2.457 18.054613 0.054612838
44.222 -27.791 2.4059999 19.054623 0.054622859
44.348999 -27.767 2.355 16.054632 0.05463288
44.557999 -27.791 2.306 15.054643 0.054642893
44.710999 -27.778 2.2539999 16.054653 0.054652911
44.895 -27.781 2.2030001 16.054663 0.054662924
45.104 -27.799999 2.1559999 19.054672 0.054672945
45.265999 -27.785 2.105 18.054684 0.054682959
45.456001 -27.785999 2.0539999 20.054693 0.054692976
45.667 -27.797001 2.0050001 24.054703 0.054702997
45.853001 -27.790001 1.955 27.054712 0.054713011
46.069 -27.801001 1.908 31.054724 0.054723032
46.258999 -27.792999 1.858 38.054733 0.054733045
46.470001 -27.794001 1.809 44.054745 0.054743063
46.681999 -27.794001 1.76 54.054752 0.054753084
46.880001 -27.785 1.7130001 45.054764 0.054763097
47.124001 -27.799 1.665 53.054771 0.054773115
47.348999 -27.799999 1.6160001 55.054783 0.054783128
47.578999 -27.801001 1.568 55.054794 0.054793149
47.806 -27.798 1.52 56.054802 0.054803163
48.049 -27.804001 1.475 55.054813 0.054813184
48.303001 -27.811001 1.428 53.054825 0.054823201
48.551998 -27.813999 1.38 54.054832 0.054833215
48.791 -27.809 1.3329999 48.054844 0.054843236
49.049 -27.813 1.288 55.054852 0.054853249
49.294998 -27.806999 1.2410001 51.054863 0.054863267
49.582001 -27.820999 1.1950001 50.054874 0.05487328
49.852001 -27.823 1.149 50.054882 0.054883301
50.110001 -27.816 1.102 47.054893 0.054893322
50.415001 -27.832001 1.057 42.054905 0.054903336
50.713001 -27.841999 1.011 33.054913 0.054913353
51.021999 -27.857 0.96899998 25.054924 0.054923367
51.261002 -27.83 0.92199999 20.054934 0.054933388
51.561001 -27.833 0.87699997 14.054943 0.054943405
51.743999 -27.771 0.82999998 7.0549536 0.054953419
54.293999 -28.975 0.81999999 10.054963 0.05496344
54.138 -28.721001 0.76700002 38.054974 0.054973453
54.123001 -28.542999 0.71600002 51.054985 0.054983474
54.158001 -28.389999 0.66799998 53.054993 0.054993488
54.125 -28.202999 0.62099999 52.055004 0.055003505
54.296001 -28.118999 0.57499999 44.055012 0.055013526
54.667 -28.139 0.53399998 48.055023 0.05502354
56.145 -28.719 0.5 56.055035 0.055033557
56.118999 -28.525 0.45300001 60.055042 0.055043571
56.120998 -28.344 0.40599999 64.055054 0.055053592
56.145 -28.174 0.361 55.055065 0.055063605
56.210999 -28.027 0.31799999 25.055073 0.055073626
56.377998 -27.926001 0.27500001 25.055084 0.055083644
56.380001 -27.743 0.23100001 28.055094 0.055093657
56.167 -27.452999 0.18700001 17.055103 0.055103678
56.256001 -27.313999 0.148 20.055113 0.055113692
56.316002 -27.158001 0.107 15.055123 0.055123709
56.344002 -26.986 0.066 14.055134 0.05513373
58.778999 -27.957001 0.027000001 12.055143 0.055143744
56.41 -26.643 -0.012 11.055154 0.055153765
56.407001 -26.454 -0.050999999 14.055163 0.055163778
56.254002 -26.195 -0.088 16.055174 0.055173796
61.530998 -28.448999 -0.134 27.055183 0.055183809
56.472 -25.922001 -0.16 10.055194 0.05519383
56.380001 -25.690001 -0.19499999 17.055204 0.055203848
56.389999 -25.506001 -0.23 18.055214 0.055213861
56.41 -25.327999 -0.26199999 25.055223 0.055223882
56.363998 -25.118 -0.29499999 29.055233 0.055233896
56.383999 -24.937 -0.32800001 34.055244 0.055243917
56.432999 -24.768 -0.36000001 31.055254 0.05525393
56.326 -24.531 -0.391 27.055264 0.055263948
56.314999 -24.339001 -0.419 22.055273 0.055273969
56.386002 -24.179001 -0.44999999 25.055285 0.055283982
56.359001 -23.976 -0.47799999 23.055294 0.055294
56.354 -23.783001 -0.50700003 20.055304 0.055304013
56.060001 -23.474001 -0.53200001 13.055314 0.055314034
56.006001 -23.261 -0.55900002 12.055324 0.055324055
55.991001 -23.065001 -0.58499998 13.055334 0.055334069
55.960999 -22.862 -0.61000001 15.055344 0.055344086
57.528999 -23.309999 -0.65100002 60.055355 0.0553541
55.972 -22.489 -0.65799999 11.055364 0.055364121
55.973999 -22.299 -0.68099999 11.055374 0.055374134
55.909 -22.083 -0.70300001 12.055384 0.055384152
55.903 -21.889999 -0.72600001 12.055394 0.055394173
59.769001 -23.202999 -0.79699999 30.055405 0.055404186
0 0 0 0.055414207 0.055414207
0 0 0 0.055424221 0.055424221
56.294998 -21.281 -0.81099999 23.055435 0.055434238
56.317001 -21.097 -0.83099997 22.055445 0.055444252
56.165001 -20.849001 -0.847 23.055454 0.055454273
56.095001 -20.631001 -0.86400002 80.055466 0.05546429
56.104 -20.445999 -0.88 78.055473 0.055474304
56.084 -20.247 -0.89700001 75.055481 0.055484325
12.788 -4.573 -0.208 29.055494 0.055494338
12.671 -4.4879999 -0.20900001 45.055504 0.055504359
12.606 -4.4229999 -0.211 47.055515 0.055514377
12.557 -4.3629999 -0.214 57.055523 0.05552439
12.546 -4.316 -0.21699999 48.055534 0.055534411
12.531 -4.2680001 -0.22 52.055546 0.055544425
12.529 -4.2249999 -0.222 61.055553 0.055554442
12.527 -4.1820002 -0.22499999 61.055565 0.055564456
12.525 -4.138 -0.228 64.055573 0.055574477
12.529 -4.0960002 -0.23 67.055588 0.055584498
12.534 -4.0560002 -0.23199999 68.055595 0.055594511
12.54 -4.0149999 -0.235 70.055603 0.055604529
12.547 -3.9749999 -0.237 67.055618 0.055614542
12.566 -3.938 -0.23899999 70.055626 0.055624563
12.572 -3.8970001 -0.241 66.055634 0.055634577
12.603 -3.865 -0.243 69.055641 0.055644594
12.62 -3.8269999 -0.245 66.055656 0.055654615
12.647 -3.7920001 -0.24699999 67.055664 0.055664629
12.682 -3.76 -0.25 65.055672 0.05567465
12.716 -3.7279999 -0.25099999 65.055687 0.055684663
12.763 -3.6989999 -0.25400001 60.055695 0.055694681
12.807 -3.668 -0.25600001 51.055706 0.055704702
12.869 -3.6429999 -0.25799999 50.055714 0.055714715
12.958 -3.6240001 -0.26100001 49.055725 0.055724733
13.118 -3.625 -0.26499999 10.055735 0.055734746
56.245998 -15.354 -1.1390001 11.055745 0.055744767
56.215 -15.158 -1.14 14.055755 0.055754781
56.092999 -14.936 -1.1390001 12.055765 0.055764802
56.229 -14.783 -1.143 11.055775 0.055774819
56.167999 -14.578 -1.143 11.055785 0.055784833
56.155998 -14.385 -1.1440001 9.0557947 0.055794854
0 0 0 0.055804867 0.055804867
0 0 0 0.055814885 0.055814885
0 0 0 0.055824898 0.055824898
56.368999 -13.685 -1.145 6.0558348 0.055834919
0 0 0 0.05584494 0.05584494
56.379002 -13.312 -1.14 16.055855 0.055854954
56.377998 -13.123 -1.138 25.055864 0.055864971
56.377998 -12.934 -1.135 25.055876 0.055874985
55.112999 -12.463 -1.105 124.05589 0.055885006
56.006001 -12.477 -1.119 108.05589 0.055895019
56.09 -12.309 -1.117 85.055908 0.055905037
56.089001 -12.121 -1.112 84.055916 0.055915058
56.423 -12.008 -1.113 49.055923 0.055925071
57.368 -12.018 -1.126 50.055935 0.055935092
58.284 -12.016 -1.138 46.055946 0.055945106
59.27 -12.022 -1.151 43.055954 0.055955123
60.293999 -12.029 -1.163 46.055965 0.055965144
61.307999 -12.031 -1.174 45.055977 0.055975158
62.755001 -12.104 -1.1950001 132.05598 0.055985175
63.591 -12.054 -1.202 83.055992 0.055995189
63.821999 -11.889 -1.196 46.056004 0.05600521
63.818001 -11.677 -1.186 35.056015 0.056015223
63.787998 -11.46 -1.175 37.056026 0.056025244
63.856998 -11.262 -1.166 35.056034 0.056035262
63.761002 -11.037 -1.152 13.056046 0.056045275
63.834 -10.839 -1.142 26.056055 0.056055296
63.811001 -10.627 -1.131 28.056065 0.05606531
63.855 -10.424 -1.12 26.056076 0.056075327
63.682999 -10.186 -1.104 15.056086 0.056085341
63.830002 -10.002 -1.0930001 32.056095 0.056095362
63.882999 -9.8000002 -1.08 38.056107 0.056105383
63.832001 -9.5830002 -1.0650001 34.056114 0.056115396
63.768002 -9.3660002 -1.049 32.056126 0.056125414
63.852001 -9.1689997 -1.036 37.056137 0.056135427
63.814999 -8.9540005 -1.02 44.056145 0.056145448
63.832001 -8.75 -1.0039999 43.056156 0.056155466
63.804001 -8.5369997 -0.98799998 46.056164 0.056165479
63.768002 -8.3240004 -0.97100002 12.056175 0.0561755
63.868 -8.1280003 -0.95499998 31.056185 0.056185514
63.911999 -7.927 -0.93900001 37.056194 0.056195535
63.778 -7.7020001 -0.91900003 30.056206 0.056205548
63.784 -7.494 -0.90100002 28.056215 0.056215566
63.806999 -7.289 -0.88300002 31.056225 0.056225587
63.816002 -7.0819998 -0.86500001 29.056236 0.0562356
63.797001 -6.8740001 -0.84500003 25.056246 0.056245618
63.807999 -6.6680002 -0.82599998 29.056255 0.056255631
63.796001 -6.4590001 -0.80599999 21.056265 0.056265652
63.762001 -6.2480001 -0.78500003 28.056276 0.056275666
63.797001 -6.0440001 -0.76499999 31.056286 0.056285687
63.785999 -5.8379998 -0.74400002 33.056297 0.056295704
63.737999 -5.6259999 -0.722 16.056305 0.056305718
56.075001 -4.7680001 -0.616 46.056316 0.056315739
55.932999 -4.5739999 -0.59500003 58.056324 0.056325752
55.887001 -4.3920002 -0.57499999 62.056335 0.05633577
55.872002 -4.2090001 -0.55500001 64.056343 0.056345791
55.944 -4.033 -0.53500003 59.056355 0.056355804
56.046001 -3.859 -0.51499999 49.056366 0.056365825
56.285 -3.694 -0.49700001 35.056377 0.056375839
63.646 -3.974 -0.537 63.056385 0.056385856
68.556 -4.0580001 -0.55299997 24.056396 0.05639587
71.125999 -3.9809999 -0.54500002 53.056404 0.056405891
75.019997 -3.9560001 -0.546 19.056416 0.056415908
80.554001 -3.9879999 -0.55299997 23.056425 0.056425922
86.372002 -3.997 -0.55800003 26.056437 0.056435943
93.068001 -4.0110002 -0.56300002 27.056446 0.056445956
86.380997 -3.444 -0.48699999 21.056456 0.056455977
86.380997 -3.165 -0.44999999 26.056465 0.056465991
86.424004 -2.888 -0.41299999 27.056477 0.056476008
78.896004 -2.3859999 -0.34299999 16.056486 0.056486029
86.403 -2.3380001 -0.338 30.056496 0.056496043
0 0 0 0.05650606 0.05650606
0 0 0 0.056516074 0.056516074
0 0 0 0.056526095 0.056526095
0 0 0 0.056536116 0.056536116
0 0 0 0.056546129 0.056546129
0 0 0 0.056556147 0.056556147
0 0 0 0.05656616 0.05656616
0 0 0 0.056576181 0.056576181
0 0 0 0.056586195 0.056586195
0 0 0 0.056596212 0.056596212
0 0 0 0.056606233 0.056606233
0 0 0 0.056616247 0.056616247
0 0 0 0.056626268 0.056626268
0 0 0 0.056636281 0.056636281
0 0 0 0.056646299 0.056646299
0 0 0 0.056656312 0.056656312
0 0 0 0.056666333 0.056666333
101.346 3.098 0.5 29.056677 0.056676351
93.733002 3.1659999 0.514 44.056686 0.056686364
86.209 3.188 0.51999998 44.056698 0.056696385
85.986 3.451 0.56599998 65.056709 0.056706399
71.452003 3.0969999 0.50999999 16.056717 0.05671642
71.098 3.309 0.54799998 55.056725 0.056726437
63.883999 3.178 0.52899998 40.056736 0.056736451
63.599998 3.368 0.56400001 60.056747 0.056746472
56.499001 3.1700001 0.53399998 6.0567565 0.056756485
56.155998 3.3310001 0.56400001 57.056767 0.056766503
56.008999 3.5009999 0.59600002 70.056778 0.056776516
55.970001 3.678 0.62900001 78.056786 0.056786537
55.933998 3.852 0.662 75.056793 0.056796558
55.948002 4.0320001 0.69700003 76.056808 0.056806572
56.056 4.2189999 0.73299998 60.056816 0.056816589
56.306 4.4190001 0.77100003 42.056828 0.056826603
56.404999 4.6040001 0.80800003 50.056835 0.056836624
56.389999 4.7839999 0.84299999 51.056847 0.056846637
56.308998 4.9569998 0.87900001 49.056858 0.056856655
56.233002 5.1300001 0.91399997 51.056866 0.056866676
56.159 5.3010001 0.949 47.056877 0.056876689
56.063999 5.4710002 0.98400003 43.056889 0.05688671
55.952 5.6389999 1.02 48.056896 0.056896724
55.848 5.8080001 1.056 42.056908 0.056906741
55.799999 5.9790001 1.0930001 51.056915 0.056916762
55.792999 6.1539998 1.13 45.056927 0.056926776
55.777 6.3309999 1.169 45.056938 0.056936793
55.796001 6.5120001 1.2079999 44.056946 0.056946807
34.439999 4.1279998 0.76899999 5.0569568 0.056956828
34.551998 4.2519999 0.796 19.056967 0.056966841
34.429001 4.3470001 0.81800002 7.0569768 0.056976862
34.380001 4.4510002 0.84200001 8.0569868 0.05698688
55.793999 7.4000001 1.4069999 43.056995 0.056996893
55.784 7.5770001 1.448 36.057007 0.057006914
55.776001 7.7550001 1.489 29.057016 0.057016928
55.773998 7.9330001 1.531 26.057028 0.057026945
55.775002 8.1120005 1.573 29.057037 0.057036959
55.784 8.2889996 1.615 17.057047 0.05704698
55.791 8.4689999 1.659 20.057056 0.057057001
55.751999 8.6420002 1.701 24.057068 0.057067014
55.771 8.823 1.745 26.057077 0.057077032
55.779999 9.0039997 1.79 27.057087 0.057087045
55.754002 9.1780005 1.8329999 28.057096 0.057097066
55.789001 9.3629999 1.88 28.057108 0.057107083
55.77 9.5360003 1.923 27.057117 0.057117097
55.799999 9.7200003 1.97 27.057127 0.057127118
55.786999 9.8959999 2.016 27.057137 0.057137132
55.768002 10.072 2.062 29.057148 0.057147153
55.762001 10.25 2.108 28.057158 0.057157166
55.778999 10.429 2.155 28.057167 0.057167184
55.792 10.61 2.2030001 28.057177 0.057177205
55.807999 10.792 2.2520001 28.057188 0.057187218
55.765999 10.963 2.299 28.057198 0.057197236
56.112999 11.209 2.3610001 45.057209 0.057207249
56.028 11.372 2.4070001 66.05722 0.05721727
55.986 11.543 2.4560001 67.057228 0.057227284
55.935001 11.707 2.503 68.057236 0.057237305
55.914001 11.882 2.553 75.057251 0.057247322
55.943001 12.067 2.605 66.057259 0.057257336
56.037998 12.268 2.6619999 57.057266 0.057267357
56.308998 12.505 2.7249999 25.057278 0.05727737
0 0 0 0.057287388 0.057287388
0 0 0 0.057297401 0.057297401
0 0 0 0.057307422 0.057307422
0 0 0 0.057317443 0.057317443
0 0 0 0.057327457 0.057327457
0 0 0 0.057337474 0.057337474
0 0 0 0.057347488 0.057347488
0 0 0 0.057357509 0.057357509
0 0 0 0.057367526 0.057367526
13.141 3.339 0.76300001 42.057377 0.05737754
13.006 3.346 0.76899999 105.05739 0.057387561
13.002 3.3859999 0.78100002 103.0574 0.057397574
12.972 3.4200001 0.79299998 58.057407 0.057407595
12.951 3.4560001 0.80500001 40.057419 0.057417609
12.864 3.474 0.81400001 45.057426 0.057427626
12.815 3.5020001 0.824 46.057438 0.057437647
12.76 3.527 0.83399999 47.057449 0.057447661
12.732 3.5599999 0.84600002 46.057457 0.057457678
12.698 3.592 0.85799998 47.057468 0.057467692
12.672 3.625 0.87 47.057476 0.057477713
12.649 3.658 0.88200003 46.057487 0.057487726
12.611 3.688 0.89399999 46.057499 0.057497747
12.61 3.7279999 0.90799999 46.057507 0.057507765
12.599 3.7639999 0.921 44.057518 0.057517778
12.57 3.796 0.93300003 44.057529 0.057527799
12.565 3.835 0.94700003 45.057537 0.057537813
12.541 3.868 0.95999998 43.057549 0.05754783
12.548 3.9100001 0.97600001 43.057556 0.057557851
12.539 3.9460001 0.98900002 43.057568 0.057567865
12.546 3.9890001 1.005 44.057579 0.057577886
12.542 4.027 1.02 46.057587 0.057587899
12.551 4.0700002 1.036 45.057598 0.057597917
12.57 4.1149998 1.052 44.05761 0.05760793
12.579 4.158 1.069 42.057617 0.057617951
12.586 4.1999998 1.084 40.057629 0.057627968
12.617 4.2509999 1.103 39.057636 0.057637982
12.661 4.3060002 1.123 39.057648 0.057648003
12.714 4.3639998 1.1440001 37.057659 0.057658017
12.831 4.4450002 1.171 17.057669 0.057668038
0 0 0 0.057678051 0.057678051
0 0 0 0.057688069 0.057688069
0 0 0 0.05769809 0.05769809
0 0 0 0.057708103 0.057708103
0 0 0 0.057718121 0.057718121
0 0 0 0.057728134 0.057728134
0 0 0 0.057738155 0.057738155
0 0 0 0.057748176 0.057748176
0 0 0 0.05775819 0.05775819
0 0 0 0.057768207 0.057768207
0 0 0 0.057778221 0.057778221
0 0 0 0.057788242 0.057788242
0 0 0 0.057798255 0.057798255
0 0 0 0.057808273 0.057808273
0 0 0 0.057818294 0.057818294
0 0 0 0.057828307 0.057828307
0 0 0 0.057838328 0.057838328
0 0 0 0.057848342 0.057848342
0 0 0 0.057858359 0.057858359
0 0 0 0.057868373 0.057868373
0 0 0 0.057878394 0.057878394
0 0 0 0.057888411 0.057888411
0 0 0 0.057898425 0.057898425
0 0 0 0.057908446 0.057908446
0 0 0 0.057918459 0.057918459
0 0 0 0.05792848 0.05792848
0 0 0 0.057938498 0.057938498
0 0 0 0.057948511 0.057948511
0 0 0 0.057958532 0.057958532
0 0 0 0.057968546 0.057968546
0 0 0 0.057978563 0.057978563
0 0 0 0.057988577 0.057988577
0 0 0 0.057998598 0.057998598
0 0 0 0.058008619 0.058008619
0 0 0 0.058018632 0.058018632
0 0 0 0.05802865 0.05802865
0 0 0 0.058038663 0.058038663
0 0 0 0.058048684 0.058048684
0 0 0 0.058058698 0.058058698
0 0 0 0.058068715 0.058068715
0 0 0 0.058078736 0.058078736
0 0 0 0.05808875 0.05808875
0 0 0 0.058098771 0.058098771
0 0 0 0.058108784 0.058108784
0 0 0 0.058118802 0.058118802
0 0 0 0.058128823 0.058128823
0 0 0 0.058138836 0.058138836
0 0 0 0.058148853 0.058148853
104.355 51.557999 17.367001 43.058159 0.058158867
104.41 51.873001 17.563999 43.05817 0.058168888
104.328 52.119999 17.74 44.058178 0.058178902
101.847 51.158001 17.503 43.058189 0.058188923
101.874 51.448002 17.694 49.058201 0.05819894
101.844 51.705002 17.870001 56.058208 0.058208954
101.867 51.990002 18.062 61.05822 0.058218975
101.854 52.254002 18.249001 61.058228 0.058228988
101.874 52.534 18.443001 53.058239 0.058239006
101.707 52.712002 18.597 45.05825 0.058249019
0 0 0 0.05825904 0.05825904
94.461998 49.446999 17.629 39.05827 0.058269061
94.310997 49.610001 17.778999 45.058281 0.058279075
94.316002 49.852001 17.959999 53.058289 0.058289092
94.339996 50.101002 18.139 54.0583 0.058299106
94.364998 50.344002 18.327999 56.058308 0.058309127
94.348999 50.57 18.506001 57.058319 0.058319144
94.334 50.793999 18.686001 56.058331 0.058329158
94.349998 51.030998 18.872 54.058338 0.058339179
94.366997 51.265999 19.052999 52.05835 0.058349192
94.279999 51.443001 19.219 44.058361 0.058359213
0 0 0 0.058369227 0.058369227
0 0 0 0.058379244 0.058379244
0 0 0 0.058389265 0.058389265
84.742996 47.023998 17.936001 42.058399 0.058399279
84.727997 47.207001 18.1 47.058411 0.058409296
84.652 47.353001 18.252001 49.058418 0.05841931
84.400002 47.396999 18.365 39.05843 0.058429331
84.186996 47.459 18.481001 28.058439 0.058439344
86.828003 49.133999 19.233999 33.058449 0.058449365
86.777 49.286999 19.389999 37.05846 0.058459383
86.759003 49.457001 19.559999 34.058468 0.058469396
0 0 0 0.058479417 0.058479417
0 0 0 0.058489431 0.058489431
0 0 0 0.058499448 0.058499448
0 0 0 0.058509469 0.058509469
0 0 0 0.058519483 0.058519483
0 0 0 0.058529504 0.058529504
0 0 0 0.058539517 0.058539517
0 0 0 0.058549535 0.058549535
0 0 0 0.058559548 0.058559548
74.402 43.826 18.257 27.058569 0.058569569
74.373001 43.936001 18.399 41.058578 0.058579586
74.386002 44.068001 18.551001 49.05859 0.0585896
74.339996 44.162998 18.688999 41.058601 0.058599621
71.900002 42.827999 18.214001 20.058609 0.058609635
71.831001 42.898998 18.34 34.05862 0.058619656
71.792 42.985001 18.473 44.058628 0.058629669
71.811996 43.104 18.622 51.05864 0.058639687
71.802002 43.198002 18.764 52.058651 0.058649708
71.804001 43.299999 18.902 46.058659 0.058659721
71.797997 43.394001 19.042 46.05867 0.058669738
71.775002 43.474998 19.177 54.058681 0.058679752
71.769997 43.563999 19.316999 54.058689 0.058689773
71.811996 43.678001 19.464001 51.058701 0.058699787
71.815002 43.765999 19.604 57.058708 0.058709808
71.806999 43.842999 19.740999 54.05872 0.058719825
71.795998 43.916 19.872 53.058731 0.058729839
71.773003 43.978001 20.004 41.058739 0.05873986
71.755997 44.041 20.136 29.05875 0.058749873
0 0 0 0.05875989 0.05875989
0 0 0 0.058769912 0.058769912
0 0 0 0.058779925 0.058779925
64.386002 39.750999 18.549999 27.05879 0.058789946
64.302002 39.75 18.645 38.0588 0.05879996
64.292999 39.792999 18.761 49.058811 0.058809977
64.304001 39.844002 18.878 50.058819 0.058819991
64.275002 39.868 18.986 49.05883 0.058830012
64.281998 39.910999 19.104 49.058842 0.058840029
64.276001 39.943001 19.218 48.058849 0.058850043
64.290001 39.985001 19.332001 48.058861 0.058860064
64.271004 40.002998 19.438999 47.058868 0.058870077
64.311996 40.054001 19.563999 48.05888 0.058880098
64.287003 40.062 19.663 48.058891 0.058890112
64.301003 40.091 19.777 47.058899 0.058900129
64.285004 40.098 19.881001 50.05891 0.05891015
64.238998 40.082001 19.974001 40.058922 0.058920164
64.332001 40.151001 20.108999 25.058929 0.058930181
63.007 39.332001 19.794001 20.058941 0.058940195
62.842999 39.233002 19.844 24.05895 0.058950216
62.827 39.223 19.938999 30.05896 0.058960237
62.835999 39.227001 20.041 32.058971 0.05897025
62.848999 39.23 20.138 29.058981 0.058980267
62.865002 39.230999 20.24 29.05899 0.058990281
62.903999 39.243999 20.347 24.059 0.059000302
0 0 0 0.059010316 0.059010316
0 0 0 0.059020333 0.059020333
0 0 0 0.059030354 0.059030354
56.931 35.443001 18.747999 18.05904 0.059040368
56.915001 35.409 18.818001 25.05905 0.059050389
56.875999 35.356998 18.882999 33.059059 0.059060402
56.814999 35.289001 18.938999 38.059071 0.05907042
56.777 35.230999 19.000999 44.059082 0.059080433
56.784 35.199001 19.076 47.05909 0.059090454
56.783001 35.160999 19.143999 50.059101 0.059100471
56.765999 35.108002 19.208 47.059109 0.059110485
56.764 35.062 19.275999 44.05912 0.059120506
56.759998 35.012001 19.341999 30.05913 0.05913052
55.012001 33.887001 18.806 18.059141 0.059140541
54.990002 33.821999 18.860001 19.059151 0.059150558
54.976002 33.761002 18.913 25.05916 0.059160572
54.905998 33.660999 18.947001 31.05917 0.059170593
54.834 33.557999 18.979 35.059181 0.059180606
54.797001 33.473999 19.021 36.059189 0.059190623
54.717999 33.363998 19.044001 40.0592 0.059200637
54.692001 33.280998 19.087 40.059212 0.059210658
54.669998 33.199001 19.129 43.059219 0.059220679
54.665001 33.124001 19.176001 42.059231 0.059230693
54.645 33.037998 19.215 41.059242 0.05924071
54.620998 32.950001 19.249001 41.05925 0.059250724
54.592999 32.854 19.282 38.059261 0.059260745
54.557999 32.751999 19.311001 31.059271 0.059270758
54.532001 32.654999 19.339001 33.05928 0.059280775
54.459999 32.527 19.351999 33.059292 0.059290797
54.387001 32.396 19.362 32.059299 0.05930081
54.306999 32.257999 19.368 32.059311 0.059310831
54.263 32.139 19.384001 33.059322 0.059320845
54.188 32.004002 19.386 29.05933 0.059330862
54.166 31.895 19.407 32.059341 0.059340883
