# .PCD v0.7 - Point Cloud Data file format
VERSION 0.7
FIELDS x y z intensity time
SIZE 4 4 4 4 4
TYPE F F F F F
COUNT 1 1 1 1 1
WIDTH 1013
HEIGHT 1
VIEWPOINT 0 0 0 1 0 0 0
POINTS 1013
DATA ascii
2.0810001 0.264 -1.443 8.0083036 0.0083041172
2.0810001 0.26699999 -1.442 9.0083141 0.0083141346
2.0799999 0.27000001 -1.441 9.0083246 0.0083241509
2.0829999 0.273 -1.443 8.0083342 0.0083341682
2.0840001 0.27700001 -1.443 9.0083447 0.0083441855
2.089 0.28 -1.4450001 9.0083542 0.0083542019
2.0880001 0.28299999 -1.444 9.0083647 0.0083642192
2.0869999 0.285 -1.442 10.008374 0.0083742365
2.089 0.28799999 -1.442 10.008385 0.0083842529
2.0910001 0.29100001 -1.442 10.008394 0.0083942702
2.0940001 0.29499999 -1.443 10.008405 0.0084042866
2.0969999 0.29800001 -1.443 11.008414 0.0084143039
2.098 0.30000001 -1.442 11.008425 0.0084243212
2.102 0.30399999 -1.444 12.008434 0.0084343385
2.1059999 0.30700001 -1.444 13.008445 0.0084443558
2.108 0.31 -1.443 14.008454 0.0084543731
2.108 0.31200001 -1.442 13.008465 0.0084643895
2.1110001 0.315 -1.441 13.008474 0.0084744068
2.1099999 0.31799999 -1.438 11.008485 0.0084844232
2.118 0.322 -1.442 9.0084944 0.0084944405
2.119 0.324 -1.4400001 9.0085049 0.0085044578
2.1229999 0.32699999 -1.4400001 8.0085144 0.0085144741
2.1270001 0.33000001 -1.4400001 8.0085249 0.0085244915
2.1289999 0.333 -1.438 8.0085344 0.0085345088
2.1329999 0.336 -1.438 9.0085449 0.0085445251
2.142 0.33899999 -1.441 10.008554 0.0085545424
2.141 0.34200001 -1.437 10.008565 0.0085645597
2.1470001 0.345 -1.438 10.008574 0.008574577
2.152 0.34799999 -1.438 10.008585 0.0085845944
2.1659999 0.352 -1.443 11.008595 0.0085946107
2.1670001 0.35499999 -1.441 11.008605 0.008604628
2.175 0.35800001 -1.442 11.008615 0.0086146453
2.1819999 0.361 -1.443 11.008625 0.0086246617
2.1889999 0.36399999 -1.444 10.008635 0.008634679
2.1930001 0.36700001 -1.442 10.008645 0.0086446963
2.1989999 0.37 -1.442 11.008655 0.0086547127
2.2049999 0.373 -1.442 11.008665 0.00866473
2.21 0.375 -1.4400001 11.008675 0.0086747464
2.2179999 0.37900001 -1.441 11.008685 0.0086847637
2.224 0.38100001 -1.441 10.008695 0.008694781
2.2290001 0.384 -1.439 10.008705 0.0087047983
2.24 0.38800001 -1.442 10.008715 0.0087148156
2.2460001 0.38999999 -1.4400001 9.0087252 0.0087248329
2.253 0.39300001 -1.4400001 9.0087347 0.0087348493
2.263 0.396 -1.441 10.008745 0.0087448666
2.27 0.39899999 -1.441 10.008755 0.008754883
2.2809999 0.403 -1.442 7.0087647 0.0087649003
2.2920001 0.40599999 -1.444 6.0087748 0.0087749176
2.2980001 0.40799999 -1.442 6.0087848 0.0087849339
2.3099999 0.412 -1.444 8.0087948 0.0087949513
2.3150001 0.414 -1.442 12.008805 0.0088049686
2.3210001 0.41600001 -1.4400001 14.008815 0.0088149849
2.332 0.41999999 -1.441 15.008825 0.0088250022
2.3429999 0.42300001 -1.441 14.008835 0.0088350195
2.3540001 0.426 -1.442 15.008845 0.0088450368
2.3659999 0.42899999 -1.443 15.008855 0.0088550542
2.378 0.43200001 -1.4450001 16.008865 0.0088650705
2.388 0.435 -1.444 16.008875 0.0088750878
2.3989999 0.43799999 -1.444 16.008884 0.0088851051
2.4070001 0.44 -1.442 16.008896 0.0088951215
2.4200001 0.44400001 -1.444 14.008905 0.0089051388
2.4260001 0.44499999 -1.4400001 13.008915 0.0089151561
2.444 0.44999999 -1.444 14.008925 0.0089251725
2.4560001 0.45199999 -1.4450001 13.008935 0.0089351898
2.467 0.45500001 -1.444 11.008945 0.0089452062
2.4779999 0.458 -1.444 11.008955 0.0089552235
2.494 0.461 -1.446 10.008965 0.0089652408
2.503 0.463 -1.443 11.008975 0.0089752581
2.5150001 0.46599999 -1.443 13.008986 0.0089852754
2.5250001 0.46799999 -1.442 13.008995 0.0089952927
2.54 0.47099999 -1.442 15.009006 0.0090053091
2.549 0.47299999 -1.4400001 15.009015 0.0090153264
2.5680001 0.477 -1.443 16.009026 0.0090253428
2.5829999 0.47999999 -1.443 16.009035 0.0090353601
2.5940001 0.48199999 -1.442 16.009045 0.0090453774
2.6059999 0.48500001 -1.441 16.009056 0.0090553937
2.6210001 0.48699999 -1.441 15.009066 0.0090654111
2.6359999 0.49000001 -1.441 16.009075 0.0090754284
2.652 0.493 -1.442 14.009086 0.0090854447
2.665 0.495 -1.4400001 12.009095 0.009095462
2.6830001 0.49900001 -1.442 12.009106 0.0091054793
2.701 0.50199997 -1.443 13.009115 0.0091154967
2.714 0.50400001 -1.442 12.009126 0.009125514
2.734 0.50700003 -1.444 11.009135 0.0091355303
2.747 0.509 -1.441 10.009146 0.0091455476
2.766 0.51200002 -1.443 10.009155 0.0091555649
2.779 0.514 -1.441 10.009166 0.0091655813
2.802 0.51800001 -1.444 11.009175 0.0091755986
2.8239999 0.52100003 -1.446 11.009186 0.009185615
2.845 0.52399999 -1.448 11.009195 0.0091956323
2.8610001 0.52700001 -1.447 13.009206 0.0092056496
2.8840001 0.52999997 -1.449 13.009215 0.009215666
2.8989999 0.53200001 -1.447 14.009226 0.0092256833
2.9130001 0.53399998 -1.4450001 13.009235 0.0092357006
2.934 0.537 -1.4450001 10.009246 0.0092457179
2.948 0.53799999 -1.443 10.009255 0.0092557352
2.971 0.54100001 -1.444 10.009266 0.0092657525
2.993 0.54400003 -1.4450001 13.009275 0.0092757689
3.01 0.546 -1.443 14.009286 0.0092857862
3.0350001 0.54900002 -1.4450001 14.009295 0.0092958026
3.0569999 0.55199999 -1.446 13.009306 0.0093058199
3.079 0.55500001 -1.446 12.009315 0.0093158372
3.1040001 0.55800003 -1.447 14.009326 0.0093258535
3.125 0.56 -1.447 15.009336 0.0093358709
3.1459999 0.56199998 -1.446 15.009346 0.0093458882
3.1670001 0.56400001 -1.4450001 14.009356 0.0093559045
3.191 0.56699997 -1.4450001 15.009366 0.0093659218
3.2160001 0.56999999 -1.446 15.009376 0.0093759391
3.2479999 0.574 -1.45 14.009386 0.0093859565
3.2690001 0.57499999 -1.448 12.009396 0.0093959738
3.3 0.579 -1.451 14.009406 0.0094059901
3.3169999 0.57999998 -1.448 15.009416 0.0094160074
3.3399999 0.58200002 -1.446 14.009426 0.0094260247
3.369 0.58499998 -1.448 14.009436 0.0094360411
3.3940001 0.58700001 -1.447 14.009446 0.0094460584
3.4260001 0.58999997 -1.449 13.009456 0.0094560748
3.4489999 0.59200001 -1.448 13.009466 0.0094660921
3.477 0.59399998 -1.448 12.009476 0.0094761094
3.506 0.597 -1.448 12.009486 0.0094861258
3.5320001 0.59899998 -1.447 12.009496 0.0094961431
3.5650001 0.602 -1.449 13.009506 0.0095061604
3.5899999 0.60299999 -1.447 13.009516 0.0095161777
3.6159999 0.60500002 -1.446 12.009526 0.009526195
3.6589999 0.61000001 -1.451 12.009536 0.0095362114
3.6889999 0.61199999 -1.45 13.009546 0.0095462287
3.7179999 0.61400002 -1.449 14.009556 0.009556246
3.75 0.616 -1.449 13.009566 0.0095662624
3.779 0.61799997 -1.448 14.009576 0.0095762797
3.812 0.62 -1.448 15.009586 0.009586297
3.839 0.62099999 -1.446 14.009596 0.0095963133
3.8789999 0.62400001 -1.448 11.009606 0.0096063307
3.9170001 0.62699997 -1.449 12.009616 0.009616348
3.954 0.62900001 -1.45 12.009626 0.0096263643
3.9890001 0.63200003 -1.45 12.009636 0.0096363816
4.0380001 0.63599998 -1.454 12.009646 0.0096463989
4.0739999 0.63800001 -1.4529999 14.009656 0.0096564163
4.1110001 0.63999999 -1.4529999 15.009666 0.0096664336
4.1490002 0.64200002 -1.4529999 13.009676 0.0096764499
4.1859999 0.64399999 -1.452 13.009686 0.0096864672
4.23 0.64600003 -1.4529999 12.009697 0.0096964845
4.27 0.648 -1.4529999 12.009706 0.0097065009
4.3150001 0.65100002 -1.455 14.009717 0.0097165182
4.355 0.653 -1.454 14.009727 0.0097265346
4.401 0.65600002 -1.454 15.009737 0.0097365519
4.4380002 0.65700001 -1.452 15.009747 0.0097465692
4.493 0.66000003 -1.455 15.009757 0.0097565856
4.54 0.66299999 -1.456 16.009768 0.0097666029
4.585 0.66500002 -1.455 16.009777 0.0097766202
4.6350002 0.667 -1.456 15.009787 0.0097866375
4.6890001 0.67000002 -1.4579999 15.009797 0.0097966548
4.743 0.67299998 -1.459 16.009808 0.0098066712
4.7979999 0.676 -1.461 16.009817 0.0098166885
4.8530002 0.67799997 -1.462 15.009827 0.0098267058
4.9039998 0.68000001 -1.462 15.009837 0.0098367222
4.961 0.68300003 -1.4630001 16.009848 0.0098467395
5.0180001 0.685 -1.4630001 17.009857 0.0098567568
5.0700002 0.68599999 -1.462 16.009867 0.0098667732
5.1279998 0.68900001 -1.462 16.009876 0.0098767905
5.184 0.69 -1.462 16.009888 0.0098868068
5.2490001 0.69300002 -1.464 16.009897 0.0098968241
5.3119998 0.69499999 -1.464 17.009907 0.0099068414
5.3790002 0.69800001 -1.465 14.009917 0.0099168587
5.4530001 0.70099998 -1.4680001 15.009927 0.0099268761
5.5110002 0.70200002 -1.467 16.009937 0.0099368934
5.5809999 0.70499998 -1.467 16.009947 0.0099469097
5.6490002 0.70700002 -1.467 16.009956 0.009956927
5.7199998 0.70899999 -1.4680001 16.009968 0.0099669443
5.8049998 0.713 -1.471 17.009977 0.0099769607
5.8660002 0.713 -1.4680001 17.009987 0.009986978
5.9450002 0.71600002 -1.469 16.009996 0.0099969944
6.0339999 0.71899998 -1.472 15.010007 0.010007012
6.1040001 0.72000003 -1.47 17.010017 0.010017029
6.1859999 0.722 -1.471 16.010027 0.010027045
6.2820001 0.72600001 -1.474 16.010036 0.010037063
6.3629999 0.727 -1.473 14.010047 0.01004708
6.4450002 0.72799999 -1.472 13.010057 0.010057097
6.5279999 0.73000002 -1.471 13.010067 0.010067115
6.6269999 0.73199999 -1.472 13.010077 0.010077131
6.7280002 0.73500001 -1.474 13.010087 0.010087148
6.8249998 0.73699999 -1.474 13.010098 0.010097166
6.927 0.73900002 -1.475 14.010107 0.010107182
7.0359998 0.74199998 -1.476 14.010118 0.010117199
7.1500001 0.745 -1.478 15.010127 0.010127217
7.2690001 0.74800003 -1.4809999 14.010138 0.010137233
7.388 0.75 -1.482 13.010147 0.01014725
7.513 0.75300002 -1.484 14.010158 0.010157267
7.638 0.75599998 -1.485 14.010167 0.010167284
7.7639999 0.75800002 -1.4859999 15.010178 0.010177301
7.8959999 0.76099998 -1.487 15.010187 0.010187319
8.0360003 0.76300001 -1.489 16.010197 0.010197336
8.1890001 0.76700002 -1.493 16.010208 0.010207353
8.3009996 0.76599997 -1.488 16.010218 0.01021737
8.4569998 0.76899999 -1.49 16.010227 0.010227387
8.6070004 0.77200001 -1.4910001 16.010237 0.010237403
8.7679996 0.77399999 -1.492 17.010248 0.010247421
8.9230003 0.77600002 -1.492 17.010258 0.010257438
9.0979996 0.778 -1.493 17.010267 0.010267454
9.2869997 0.78200001 -1.4960001 17.010277 0.010277472
9.4650002 0.78399998 -1.497 16.010288 0.010287489
9.6719999 0.78799999 -1.501 17.010298 0.010297505
9.8760004 0.79100001 -1.503 18.010307 0.010307522
10.07 0.792 -1.503 22.010317 0.01031754
10.276 0.79400003 -1.502 19.010328 0.010327557
10.49 0.796 -1.503 17.010338 0.010337574
10.733 0.79900002 -1.506 17.010347 0.010347591
10.974 0.80199999 -1.507 16.010357 0.010357608
11.226 0.80400002 -1.508 15.010367 0.010367625
11.477 0.80599999 -1.508 15.010378 0.010377642
11.741 0.80699998 -1.508 13.010387 0.010387659
12.047 0.81099999 -1.512 13.010398 0.010397676
12.353 0.81400001 -1.5140001 16.010408 0.010407693
12.629 0.81400001 -1.51 16.010418 0.01041771
12.925 0.81400001 -1.508 14.010427 0.010427726
13.254 0.81599998 -1.507 13.010438 0.010437744
13.598 0.81699997 -1.507 15.010448 0.010447761
13.958 0.81900001 -1.506 18.010458 0.010457778
14.352 0.82099998 -1.507 18.010468 0.010467796
14.806 0.82499999 -1.511 18.010477 0.010477813
15.227 0.82599998 -1.51 17.010489 0.010487829
15.694 0.82800001 -1.51 12.010498 0.010497847
16.198999 0.83099997 -1.512 10.010508 0.010507863
16.766001 0.83499998 -1.517 11.010518 0.01051788
17.343 0.838 -1.518 12.010528 0.010527898
17.93 0.83899999 -1.518 13.010538 0.010537914
18.537001 0.83999997 -1.515 13.010548 0.010547931
19.226 0.84200001 -1.517 11.010558 0.010557949
19.987 0.84500003 -1.5190001 13.010568 0.010567965
20.749001 0.84600002 -1.517 12.010578 0.010577982
21.642 0.84899998 -1.52 9.0105877 0.010588
22.589001 0.852 -1.522 9.0105982 0.010598017
23.114 0.83700001 -1.4910001 11.010608 0.010608034
24.504 0.84899998 -1.511 7.0106182 0.010618051
25.903999 0.85799998 -1.523 7.0106282 0.010628068
27.290001 0.861 -1.526 9.0106382 0.010638085
28.997999 0.87099999 -1.54 10.010648 0.010648102
31.107 0.88499999 -1.563 5.0106583 0.010658119
32.591 0.87699997 -1.544 15.010668 0.010668136
35.347 0.89499998 -1.574 10.010678 0.010678153
37.786999 0.898 -1.577 6.0106883 0.01068817
0 0 0 0.010698186 0.010698186
0 0 0 0.010708204 0.010708204
0 0 0 0.010718221 0.010718221
0 0 0 0.010728238 0.010728238
0 0 0 0.010738255 0.010738255
0 0 0 0.010748273 0.010748273
0 0 0 0.010758289 0.010758289
95.386002 1.056 -1.825 30.010769 0.010768306
95.489998 0.903 -1.558 35.010777 0.010778323
95.492996 0.75 -1.293 40.010788 0.01078834
95.531998 0.59500003 -1.024 40.010799 0.010798357
95.477997 0.43900001 -0.755 27.010809 0.010808374
0 0 0 0.010818391 0.010818391
0 0 0 0.010828408 0.010828408
0 0 0 0.010838425 0.010838425
0 0 0 0.010848442 0.010848442
0 0 0 0.010858459 0.010858459
0 0 0 0.010868477 0.010868477
94.25 -0.65100002 1.097 39.01088 0.010878494
78.864998 -0.67400002 1.135 32.010887 0.01088851
71.375999 -0.73000002 1.226 45.010899 0.010898528
62.832001 -0.74800003 1.2539999 24.010908 0.010908545
62.646 -0.85100001 1.425 56.010918 0.010918561
62.550999 -0.954 1.594 54.010929 0.010928579
62.576 -1.0599999 1.768 55.010937 0.010938596
62.563 -1.166 1.941 55.010948 0.010948612
62.577 -1.273 2.115 38.01096 0.01095863
62.549 -1.378 2.2850001 36.010967 0.010968646
62.570999 -1.485 2.4590001 39.010979 0.010978663
62.563999 -1.5930001 2.631 33.01099 0.010988681
62.570999 -1.701 2.8039999 35.010998 0.010998698
62.573002 -1.807 2.9749999 40.011009 0.011008715
62.588001 -1.916 3.148 32.011017 0.011018733
62.619999 -2.026 3.322 9.0110283 0.011028749
67.051003 -2.2869999 3.7420001 17.011038 0.011038766
63.757 -2.2839999 3.7309999 73.011047 0.011048783
63.75 -2.3959999 3.9059999 74.011055 0.0110588
56.389999 -2.2179999 3.609 30.011068 0.011068817
56.220001 -2.3110001 3.753 44.011078 0.011078834
56.126999 -2.405 3.898 55.011089 0.011088851
56.062 -2.5009999 4.0450001 56.011101 0.011098868
56.025002 -2.599 4.1950002 60.011108 0.011108885
55.988998 -2.6960001 4.3439999 65.011116 0.011118902
55.997002 -2.7969999 4.4970002 72.011131 0.011128919
56.001999 -2.898 4.6500001 69.011139 0.011138937
56.015999 -3 4.8039999 72.011147 0.011148954
56.053001 -3.1010001 4.9580002 64.011162 0.01115897
56.105 -3.2060001 5.1149998 57.011169 0.011168987
56.194 -3.3139999 5.276 56.011181 0.011179005
56.34 -3.425 5.4429998 43.011189 0.011189021
62.667999 -3.9230001 6.2220001 88.0112 0.011199038
62.905998 -4.0539999 6.4169998 92.011208 0.011209055
62.895 -4.1690001 6.586 89.011223 0.011219072
62.734001 -4.2740002 6.7389998 89.01123 0.011229089
62.916 -4.402 6.927 88.011238 0.011239106
63.794998 -4.5819998 7.1960001 80.011246 0.011249123
63.806999 -4.704 7.3720002 81.011261 0.01125914
63.806 -4.822 7.5419998 84.011269 0.011269158
63.827999 -4.9439998 7.717 82.011276 0.011279175
63.839001 -5.0650001 7.8899999 79.011292 0.011289192
63.844002 -5.1869998 8.0629997 80.011299 0.011299209
63.854 -5.3070002 8.2340002 80.011307 0.011309226
63.834999 -5.427 8.4029999 78.011322 0.011319242
63.842999 -5.5500002 8.5749998 76.01133 0.01132926
63.853001 -5.6729999 8.7480001 75.011337 0.011339277
63.426998 -5.7550001 8.8579998 66.011353 0.011349293
62.790001 -5.8189998 8.9370003 61.01136 0.011359311
62.713001 -5.9330001 9.0939999 59.011368 0.011369328
62.691002 -6.053 9.2580004 60.011379 0.011379344
62.721001 -6.1760001 9.4280005 59.011391 0.011389362
63.126999 -6.3400002 9.658 61.011398 0.011399379
63.374001 -6.487 9.8629999 82.011406 0.011409396
62.796001 -6.552 9.9399996 85.011421 0.011419414
63.443001 -6.7449999 10.212 94.011429 0.01142943
62.991001 -6.822 10.306 78.011436 0.011439447
63.223 -6.974 10.512 99.011452 0.011449465
63.472 -7.1259999 10.72 88.011459 0.011459481
63.735001 -7.283 10.934 85.011467 0.011469498
63.909 -7.4320002 11.133 79.011482 0.011479515
63.921001 -7.5630002 11.304 78.01149 0.011489532
63.911999 -7.6890001 11.47 78.011497 0.011499549
63.924999 -7.8200002 11.641 79.011513 0.011509566
63.933998 -7.9520001 11.811 76.01152 0.011519583
63.914001 -8.0780001 11.975 75.011528 0.0115296
63.93 -8.2119999 12.146 75.011543 0.011539618
63.936001 -8.3450003 12.315 76.011551 0.011549635
63.917999 -8.4750004 12.48 70.011559 0.011559651
63.652 -8.5690002 12.593 66.011566 0.011569669
63.089001 -8.625 12.647 61.011581 0.011579686
62.785 -8.7150002 12.75 57.011589 0.011589702
62.773998 -8.8459997 12.913 55.0116 0.01159972
62.776001 -8.9759998 13.075 58.011608 0.011609737
63.007 -9.1429996 13.288 59.01162 0.011619753
63.257 -9.3129997 13.505 70.011627 0.011629771
63.446999 -9.4770002 13.711 89.011642 0.011639788
63.637001 -9.6389999 13.916 75.01165 0.011649804
62.195999 -9.5539999 13.762 13.01166 0.011659821
61.32 -9.552 13.727 11.01167 0.011669839
14.522 -2.293 3.2880001 4.0116796 0.011679856
14.445 -2.313 3.3080001 25.01169 0.011689873
14.324 -2.3239999 3.3169999 38.0117 0.01169989
14.115 -2.3210001 3.3050001 49.011711 0.011709907
13.99 -2.3310001 3.312 25.011721 0.011719924
13.833 -2.335 3.3099999 24.01173 0.011729941
13.678 -2.339 3.3080001 19.01174 0.011739958
13.524 -2.3429999 3.3050001 18.011749 0.011749974
13.385 -2.348 3.3050001 15.01176 0.011759992
13.221 -2.349 3.2980001 21.01177 0.011770009
13.114 -2.359 3.3050001 107.01178 0.011780025
13.089 -2.3840001 3.332 98.011787 0.011790043
12.897 -2.378 3.3150001 49.011799 0.01180006
12.71 -2.372 3.299 9.0118103 0.011810077
12.573 -2.375 3.2950001 7.0118203 0.011820095
12.463 -2.3829999 3.2980001 6.0118303 0.011830111
12.331 -2.3859999 3.2939999 5.0118403 0.011840128
12.213 -2.391 3.293 4.0118504 0.011850146
12.094 -2.395 3.2909999 3.0118601 0.011860162
11.99 -2.402 3.293 2.0118701 0.011870179
11.873 -2.4070001 3.29 1.0118802 0.011880197
11.733 -2.4059999 3.2809999 1.0118902 0.011890213
11.655 -2.4159999 3.2869999 0.01190023 0.01190023
11.528 -2.4170001 3.28 0.011910247 0.011910247
56.544998 -11.991 16.231001 74.011917 0.011920264
56.542 -12.125 16.368999 73.011932 0.011930281
56.540001 -12.256 16.507 74.01194 0.011940299
56.549999 -12.393 16.648001 71.011948 0.011950316
54.584999 -12.093 16.202999 14.01196 0.011960333
54.534 -12.213 16.320999 33.011971 0.01197035
54.466 -12.326 16.431999 50.011982 0.011980367
54.486 -12.463 16.57 51.01199 0.011990384
10.297 -2.3800001 3.1559999 0.012000401 0.012000401
10.213 -2.385 3.155 0.012010418 0.012010418
10.093 -2.381 3.142 1.0120205 0.012020434
10 -2.3840001 3.1370001 2.0120304 0.012030452
9.9289999 -2.392 3.138 4.0120406 0.012040469
9.8330002 -2.3929999 3.131 8.0120506 0.012050485
9.7360001 -2.3929999 3.1240001 10.01206 0.012060503
9.6529999 -2.3959999 3.1199999 15.012071 0.01207052
9.5640001 -2.398 3.1129999 21.012081 0.012080537
9.4729996 -2.3989999 3.1059999 25.012091 0.012090554
9.3959999 -2.4030001 3.1029999 26.0121 0.012100571
9.3319998 -2.4100001 3.1029999 34.012112 0.012110588
9.2489996 -2.4119999 3.0969999 42.012119 0.012120605
9.1780005 -2.4159999 3.0940001 44.012131 0.012130622
9.1040001 -2.4200001 3.0899999 43.012142 0.012140639
9.04 -2.4260001 3.089 44.01215 0.012150656
8.9720001 -2.4300001 3.086 45.012161 0.012160673
8.9049997 -2.4349999 3.0829999 46.012169 0.01217069
8.8409996 -2.4400001 3.0810001 46.01218 0.012180706
8.7799997 -2.4460001 3.079 46.012192 0.012190724
8.7209997 -2.4519999 3.0780001 51.012199 0.012200741
8.6540003 -2.4549999 3.0739999 47.012211 0.012210758
8.5930004 -2.4590001 3.0710001 46.012222 0.012220776
8.5360003 -2.4649999 3.069 44.01223 0.012230793
8.4759998 -2.47 3.066 27.012241 0.012240809
8.3990002 -2.4690001 3.056 23.012251 0.012250827
8.3190002 -2.467 3.0450001 25.01226 0.012260843
8.2969999 -2.483 3.0550001 114.01227 0.01227086
8.2390003 -2.487 3.0510001 150.01228 0.012280878
8.2390003 -2.5090001 3.069 150.01228 0.012290894
8.2309999 -2.5280001 3.0829999 150.0123 0.012300911
8.2390003 -2.552 3.1029999 150.01231 0.012310929
8.2390003 -2.5739999 3.1199999 99.012321 0.012320945
8.2629995 -2.6029999 3.1459999 0.012330962 0.012330962
11.213 -3.563 4.2919998 78.012344 0.01234098
11.133 -3.566 4.283 78.012352 0.012350997
11.045 -3.5680001 4.2719998 78.01236 0.012361014
10.957 -3.5680001 4.2589998 78.012367 0.012371031
10.872 -3.5699999 4.2480001 76.012383 0.012381048
10.794 -3.573 4.2389998 77.01239 0.012391065
10.707 -3.573 4.2249999 78.012398 0.012401082
10.627 -3.575 4.2140002 74.012413 0.012411099
7.2989998 -2.4749999 2.908 0.012421116 0.012421116
7.2150002 -2.4649999 2.888 1.0124311 0.012431133
7.1570001 -2.4649999 2.8789999 4.0124412 0.01244115
7.1199999 -2.471 2.8770001 9.0124512 0.012451166
7.0450001 -2.464 2.859 18.012461 0.012461184
7.0190001 -2.474 2.862 27.012472 0.012471201
6.967 -2.474 2.8529999 35.012482 0.012481218
6.9169998 -2.4749999 2.845 43.012493 0.012491236
6.8759999 -2.48 2.8399999 46.012501 0.012501252
6.8309999 -2.4820001 2.8329999 53.012512 0.01251127
6.7930002 -2.4860001 2.829 58.01252 0.012521286
6.7620001 -2.493 2.8280001 62.012531 0.012531303
6.7199998 -2.4949999 2.8210001 63.012543 0.012541321
6.6739998 -2.497 2.813 64.01255 0.012551337
6.6529999 -2.507 2.8150001 61.012562 0.012561354
6.6170001 -2.5109999 2.8099999 57.012573 0.01257137
6.5900002 -2.5179999 2.809 51.012581 0.012581388
6.5630002 -2.526 2.8080001 43.012592 0.012591405
6.5279999 -2.53 2.803 32.0126 0.012601422
6.4889998 -2.5320001 2.796 23.012611 0.012611439
6.4520001 -2.5350001 2.789 14.012622 0.012621457
6.4349999 -2.5450001 2.7920001 4.0126314 0.012631473
6.3940001 -2.546 2.783 1.0126415 0.012641491
6.3520002 -2.546 2.773 0.012651508 0.012651508
8.9490004 -3.6110001 3.9189999 71.012665 0.012661524
8.8929996 -3.612 3.9070001 70.012672 0.012671542
8.8319998 -3.6099999 3.892 69.01268 0.012681559
8.7869997 -3.615 3.8829999 68.012695 0.012691575
8.7290001 -3.615 3.869 66.012703 0.012701593
8.6759996 -3.615 3.8559999 69.012711 0.01271161
8.6210003 -3.615 3.842 67.012718 0.012721626
8.5719995 -3.6170001 3.8299999 69.012733 0.012731644
8.5179996 -3.6159999 3.816 69.012741 0.012741661
5.8449998 -2.4960001 2.625 0.012751678 0.012751678
5.809 -2.4960001 2.615 2.0127616 0.012761694
5.7740002 -2.4960001 2.605 11.012772 0.012771713
5.7379999 -2.4949999 2.595 22.012781 0.012781729
5.7129998 -2.4990001 2.5899999 31.012793 0.012791745
5.6799998 -2.4990001 2.5799999 43.012802 0.012801764
5.6529999 -2.5009999 2.573 51.012814 0.01281178
5.625 -2.5020001 2.5650001 62.012821 0.012821796
5.6030002 -2.507 2.5599999 80.012833 0.012831815
5.5799999 -2.51 2.5539999 87.01284 0.012841831
5.5650001 -2.517 2.552 88.012856 0.012851847
5.5510001 -2.5239999 2.549 84.012863 0.012861866
5.5320001 -2.529 2.5450001 78.012871 0.012871882
5.5180001 -2.536 2.5420001 66.012878 0.012881899
5.5019999 -2.5420001 2.539 47.012894 0.012891917
5.4840002 -2.546 2.533 32.012901 0.012901934
5.4720001 -2.5539999 2.5309999 17.012913 0.01291195
5.434 -2.549 2.517 6.0129218 0.012921967
5.4089999 -2.549 2.5079999 1.0129319 0.012931985
5.283 -2.5020001 2.4519999 0.012942001 0.012942001
5.1939998 -2.4719999 2.4130001 1.012952 0.012952018
5.1570001 -2.4660001 2.398 5.0129619 0.012962036
5.1500001 -2.474 2.3970001 12.012972 0.012972052
5.1199999 -2.47 2.3840001 23.012981 0.012982069
5.1030002 -2.473 2.378 27.012993 0.012992087
5.0770001 -2.4719999 2.3670001 31.013002 0.013002103
5.0619998 -2.4749999 2.3610001 33.013012 0.013012121
5.0359998 -2.473 2.3499999 35.013023 0.013022138
5.0190001 -2.4749999 2.3429999 41.013031 0.013032155
5 -2.4760001 2.3340001 44.013042 0.013042171
4.9860001 -2.4790001 2.3280001 45.013054 0.01305219
4.9640002 -2.4779999 2.3180001 45.013062 0.013062206
4.954 -2.483 2.3139999 45.013073 0.013072222
4.9260001 -2.4790001 2.3 43.013081 0.013082241
4.9120002 -2.48 2.293 44.013092 0.013092257
4.8959999 -2.4820001 2.2850001 41.013103 0.013102273
4.8779998 -2.4809999 2.276 44.013111 0.01311229
4.8600001 -2.4809999 2.267 45.013123 0.013122308
4.8460002 -2.483 2.2590001 46.013134 0.013132324
4.8280001 -2.4820001 2.2490001 44.013142 0.013142342
4.8140001 -2.4820001 2.2409999 42.013153 0.013152359
4.7950001 -2.4809999 2.23 45.013161 0.013162376
4.7820001 -2.4820001 2.2219999 47.013172 0.013172393
4.7659998 -2.4809999 2.2130001 44.013184 0.013182411
4.7550001 -2.483 2.2049999 42.013191 0.013192427
4.7389998 -2.4820001 2.1949999 41.013203 0.013202444
4.723 -2.4809999 2.1860001 40.013214 0.013212462
4.711 -2.4809999 2.177 41.013222 0.013222478
4.698 -2.4809999 2.168 41.013233 0.013232495
4.6820002 -2.4790001 2.158 41.013241 0.013242513
4.6750002 -2.4809999 2.151 44.013252 0.013252529
4.6620002 -2.4809999 2.142 44.013264 0.013262546
4.6459999 -2.4779999 2.131 43.013271 0.013272563
4.6409998 -2.4809999 2.1240001 45.013283 0.01328258
4.6279998 -2.4790001 2.115 44.013294 0.013292598
4.6199999 -2.48 2.1070001 44.013302 0.013302614
4.6149998 -2.483 2.0999999 45.013313 0.013312632
4.5960002 -2.477 2.0869999 43.013321 0.013322649
4.5910001 -2.4790001 2.0799999 43.013332 0.013332665
4.5819998 -2.4790001 2.0710001 43.013344 0.013342683
4.5739999 -2.4779999 2.063 44.013351 0.0133527
4.566 -2.4779999 2.0539999 40.013363 0.013362716
4.5640001 -2.4809999 2.0480001 40.013374 0.013372734
4.552 -2.4779999 2.0369999 41.013382 0.013382751
4.5500002 -2.48 2.0309999 41.013393 0.013392767
4.5419998 -2.4790001 2.0209999 40.013401 0.013402785
4.5349998 -2.4779999 2.0120001 41.013412 0.013412802
4.5339999 -2.4809999 2.006 42.013424 0.013422819
4.5300002 -2.4809999 1.998 40.013432 0.013432836
4.5279999 -2.4820001 1.9910001 40.013443 0.013442853
4.5229998 -2.4809999 1.982 41.013454 0.01345287
4.5159998 -2.48 1.973 40.013462 0.013462886
4.5149999 -2.4809999 1.966 40.013474 0.013472904
4.5120001 -2.4809999 1.957 39.013481 0.013482921
4.513 -2.483 1.951 40.013493 0.013492937
4.5079999 -2.4820001 1.941 38.013504 0.013502955
4.506 -2.4809999 1.933 38.013512 0.013512972
4.5019999 -2.48 1.924 38.013523 0.013522988
4.5019999 -2.48 1.9170001 39.013535 0.013533006
4.4949999 -2.477 1.906 39.013542 0.013543023
4.5019999 -2.4809999 1.901 40.013554 0.01355304
4.4990001 -2.4790001 1.892 40.013561 0.013563057
4.5 -2.4790001 1.885 40.013573 0.013573075
4.5009999 -2.48 1.877 40.013584 0.013583091
4.4980001 -2.477 1.868 45.013592 0.013593109
4.4990001 -2.477 1.86 43.013603 0.013603126
4.5029998 -2.4779999 1.853 44.013615 0.013613142
4.5050001 -2.4779999 1.845 45.013622 0.013623158
4.507 -2.4779999 1.837 44.013634 0.013633177
4.5089998 -2.477 1.829 41.013641 0.013643193
4.5100002 -2.4760001 1.821 45.013653 0.013653209
4.5149999 -2.477 1.814 42.013664 0.013663228
4.5190001 -2.4760001 1.806 43.013672 0.013673244
4.52 -2.474 1.7970001 44.013683 0.013683261
4.5180001 -2.471 1.788 40.013695 0.013693279
4.5300002 -2.4749999 1.783 41.013702 0.013703296
4.5359998 -2.4749999 1.776 41.013714 0.013713312
4.54 -2.474 1.768 41.013721 0.013723331
4.546 -2.474 1.761 40.013733 0.013733347
4.5510001 -2.473 1.753 40.013744 0.013743363
4.5570002 -2.4719999 1.7460001 38.013752 0.013753382
4.5630002 -2.4719999 1.738 39.013763 0.013763398
4.5679998 -2.47 1.73 37.013775 0.013773414
4.5770001 -2.471 1.724 36.013783 0.013783433
4.5799999 -2.4679999 1.715 37.013794 0.013793449
4.5929999 -2.47 1.709 37.013802 0.013803465
4.599 -2.4690001 1.702 36.013813 0.013813483
4.605 -2.467 1.693 38.013824 0.0138235
4.6129999 -2.4660001 1.686 40.013832 0.013833517
4.6220002 -2.4649999 1.679 37.013844 0.013843534
4.6339998 -2.4660001 1.673 37.013855 0.013853552
4.6440001 -2.4649999 1.666 38.013863 0.013863568
4.652 -2.464 1.658 38.013874 0.013873585
4.664 -2.464 1.651 38.013885 0.013883603
4.6729999 -2.4630001 1.6440001 37.013893 0.013893619
4.6789999 -2.4590001 1.635 36.013905 0.013903636
4.6900001 -2.4579999 1.628 38.013912 0.013913654
4.7020001 -2.4579999 1.6210001 40.013924 0.01392367
4.7150002 -2.4579999 1.615 40.013935 0.013933687
4.7309999 -2.4590001 1.609 40.013943 0.013943705
4.7399998 -2.4560001 1.601 38.013954 0.013953721
4.75 -2.454 1.5930001 37.013966 0.013963738
4.7709999 -2.457 1.589 38.013973 0.013973755
4.7909999 -2.4590001 1.585 37.013985 0.013983773
4.8309999 -2.4719999 1.587 38.013992 0.013993789
4.875 -2.4860001 1.589 39.014004 0.014003806
4.921 -2.5009999 1.5930001 37.014015 0.014013824
4.9660001 -2.5150001 1.595 37.014023 0.01402384
5.0120001 -2.529 1.598 32.014034 0.014033857
5.0489998 -2.539 1.598 32.014046 0.014043875
5.086 -2.5480001 1.598 31.014053 0.014053891
5.1209998 -2.556 1.597 31.014065 0.014063908
5.1529999 -2.562 1.594 32.014072 0.014073926
5.1900001 -2.5710001 1.594 32.014084 0.014083942
5.224 -2.5769999 1.592 32.014095 0.01409396
5.2649999 -2.5869999 1.592 30.014105 0.014103977
5.303 -2.595 1.591 29.014114 0.014113994
5.342 -2.6029999 1.59 30.014124 0.014124011
5.3829999 -2.612 1.589 29.014133 0.014134029
5.4239998 -2.6210001 1.589 29.014145 0.014144045
5.4650002 -2.6289999 1.5880001 30.014154 0.014154062
5.4990001 -2.6340001 1.585 30.014164 0.014164078
5.54 -2.642 1.584 29.014174 0.014174096
5.5799999 -2.6489999 1.582 28.014185 0.014184113
5.612 -2.652 1.5779999 25.014194 0.014194129
5.6490002 -2.6570001 1.575 22.014204 0.014204147
5.6669998 -2.6530001 1.567 13.014215 0.014214164
5.71 -2.6600001 1.5650001 8.0142241 0.014224181
5.723 -2.6530001 1.556 3.0142343 0.014234198
5.7399998 -2.648 1.5470001 0.014244216 0.014244216
6.408 -2.9419999 1.712 0.014254232 0.014254232
7.5450001 -3.4460001 1.998 27.014265 0.01426425
7.6139998 -3.46 2 25.014275 0.014274267
7.6700001 -3.4679999 1.9960001 26.014284 0.014284283
7.7360001 -3.4790001 1.9960001 26.014294 0.014294301
7.8080001 -3.493 1.9960001 27.014305 0.014304318
7.8699999 -3.5020001 1.994 27.014315 0.014314334
7.9299998 -3.5090001 1.9910001 28.014324 0.01432435
8.0270004 -3.5320001 1.998 38.014336 0.014334369
8.092 -3.5409999 1.9960001 43.014343 0.014344385
8.1400003 -3.5420001 1.989 45.014355 0.014354402
8.198 -3.5469999 1.985 47.014366 0.01436442
8.2349997 -3.5420001 1.975 62.014374 0.014374437
8.2320004 -3.5209999 1.956 80.014381 0.014384453
8.2329998 -3.5009999 1.938 75.014397 0.014394471
8.2360001 -3.4809999 1.921 74.014404 0.014404488
8.2279997 -3.457 1.901 73.014412 0.014414504
8.2299995 -3.4360001 1.883 75.014427 0.014424522
8.2270002 -3.414 1.864 69.014435 0.014434539
8.2320004 -3.395 1.848 70.014442 0.014444555
8.2299995 -3.3729999 1.83 70.014458 0.014454573
8.2299995 -3.3510001 1.812 74.014465 0.01446459
8.2209997 -3.326 1.7920001 77.014473 0.014474606
8.224 -3.3050001 1.775 70.014488 0.014484624
8.2259998 -3.2850001 1.758 60.014496 0.014494641
8.2229996 -3.2609999 1.74 64.014503 0.014504658
8.2220001 -3.2390001 1.722 63.014515 0.014514674
8.2189999 -3.2160001 1.704 62.014526 0.014524693
8.2180004 -3.194 1.686 63.014534 0.014534709
8.2220001 -3.1730001 1.67 60.014545 0.014544725
8.2189999 -3.1500001 1.652 57.014553 0.014554744
8.2150002 -3.1259999 1.6339999 59.014565 0.01456476
8.2220001 -3.1070001 1.619 58.014576 0.014574776
8.2189999 -3.0829999 1.601 56.014584 0.014584795
8.2279997 -3.0639999 1.586 42.014595 0.014594811
8.2639999 -3.0539999 1.576 31.014605 0.014604827
8.3339996 -3.0580001 1.573 23.014614 0.014614846
8.3900003 -3.0550001 1.566 150.01462 0.014624862
8.4490004 -3.053 1.5599999 57.014633 0.014634879
9.7259998 -3.4879999 1.777 40.014645 0.014644897
9.802 -3.4879999 1.771 40.014656 0.014654914
9.875 -3.4860001 1.765 40.014664 0.01466493
9.941 -3.4820001 1.757 40.014675 0.014674947
10.013 -3.4790001 1.75 38.014687 0.014684965
10.093 -3.4779999 1.744 37.014694 0.014694981
10.171 -3.477 1.738 36.014706 0.014704998
10.254 -3.4760001 1.732 38.014713 0.014715016
10.316 -3.4679999 1.723 42.014725 0.014725032
10.392 -3.464 1.715 35.014736 0.014735049
10.474 -3.4619999 1.709 34.014744 0.014745067
10.547 -3.4560001 1.701 34.014755 0.014755083
10.637 -3.4560001 1.6950001 35.014767 0.014765101
10.732 -3.4560001 1.6900001 36.014774 0.014775118
10.82 -3.4530001 1.684 36.014786 0.014785135
10.916 -3.4530001 1.678 35.014793 0.014795152
11.008 -3.45 1.6720001 37.014805 0.01480517
11.101 -3.448 1.666 38.014816 0.014815186
11.205 -3.448 1.661 37.014824 0.014825203
11.299 -3.4449999 1.654 36.014835 0.014835221
11.395 -3.4419999 1.648 37.014847 0.014845237
11.513 -3.444 1.6440001 37.014854 0.014855254
11.611 -3.4400001 1.637 36.014866 0.01486527
11.714 -3.437 1.631 36.014874 0.014875288
11.836 -3.438 1.627 40.014885 0.014885304
11.942 -3.434 1.62 39.014896 0.014895322
12.058 -3.4330001 1.614 38.014904 0.014905339
12.168 -3.4289999 1.608 38.014915 0.014915356
12.279 -3.424 1.601 38.014927 0.014925373
12.41 -3.425 1.597 38.014935 0.014935391
12.53 -3.421 1.59 38.014946 0.014945407
12.649 -3.4170001 1.5829999 39.014954 0.014955424
12.777 -3.415 1.5779999 42.014965 0.014965442
12.811 -3.3859999 1.5599999 42.014977 0.014975458
12.859 -3.3610001 1.544 42.014984 0.014985475
12.917 -3.339 1.53 41.014996 0.014995493
12.971 -3.3150001 1.515 42.015007 0.015005509
13.051 -3.2969999 1.502 40.015015 0.015015526
13.166 -3.2880001 1.493 35.015026 0.015025544
13.243 -3.2679999 1.4809999 27.015036 0.01503556
14.024 -3.4200001 1.545 17.015045 0.015045578
14.309 -3.447 1.553 22.015055 0.015055594
14.449 -3.438 1.544 45.015064 0.015065612
14.498 -3.4070001 1.526 49.015076 0.015075629
14.539 -3.3740001 1.507 52.015087 0.015085645
14.619 -3.3499999 1.492 36.015095 0.015095663
14.667 -3.3169999 1.473 15.015105 0.01510568
14.693 -3.28 1.4529999 2.0151157 0.015115696
54.451 -11.996 5.2989998 51.015125 0.015125714
54.441002 -11.832 5.2119999 51.015137 0.015135731
54.438999 -11.671 5.1259999 52.015144 0.015145747
54.438999 -11.511 5.0430002 46.015156 0.015155765
54.387001 -11.339 4.954 40.015167 0.015165782
54.432999 -11.188 4.8740001 22.015175 0.015175799
55.132999 -11.168 4.8520002 10.015185 0.015185816
56.41 -11.261 4.8800001 47.015194 0.015195834
56.449001 -11.101 4.7979999 49.015205 0.01520585
56.484001 -10.94 4.7150002 58.015217 0.015215866
56.477001 -10.771 4.6300001 59.015224 0.015225885
56.473 -10.605 4.546 52.015236 0.015235901
57.127998 -10.558 4.5139999 36.015247 0.015245917
57.945 -10.538 4.494 35.015255 0.015255935
58.786999 -10.517 4.473 34.015266 0.015265952
59.615002 -10.487 4.448 34.015278 0.015275968
60.521999 -10.467 4.427 36.015285 0.015285986
61.401001 -10.438 4.4039998 35.015297 0.015296003
62.367001 -10.416 4.3829999 19.015306 0.01530602
63.444 -10.407 4.368 19.015316 0.015316037
63.966999 -10.302 4.3119998 58.015327 0.015326055
63.952 -10.109 4.2199998 59.015335 0.015336071
63.932999 -9.9169998 4.1290002 59.015347 0.015346089
63.921001 -9.724 4.0380001 58.015358 0.015356106
63.924999 -9.5340004 3.9489999 63.015366 0.015366122
63.924999 -9.3430004 3.859 70.015373 0.01537614
63.925999 -9.1520004 3.77 67.015388 0.015386157
63.918999 -8.9619999 3.6830001 64.015396 0.015396173
63.912998 -8.7700005 3.5940001 67.015404 0.015406189
63.917 -8.5799999 3.507 70.015419 0.015416208
63.910999 -8.3870001 3.4189999 62.015427 0.015426224
63.882 -8.1920004 3.3310001 72.015434 0.015436241
63.859001 -8.0010004 3.2449999 72.01545 0.015446259
63.665001 -7.7849998 3.1489999 76.015457 0.015456276
63.450001 -7.5689998 3.0539999 80.015465 0.015466292
63.389 -7.3720002 2.9660001 77.01548 0.015476311
63.333 -7.177 2.881 78.015488 0.015486327
63.390999 -6.994 2.8 77.015495 0.015496343
63.361 -6.8000002 2.7149999 81.015503 0.015506362
63.249001 -6.598 2.628 71.015518 0.015516378
63.368999 -6.4200001 2.55 80.015526 0.015526394
63.366001 -6.2319999 2.4690001 79.015533 0.015536413
63.285 -6.0339999 2.385 79.015549 0.015546429
63.341999 -5.849 2.3050001 77.015556 0.015556445
63.334999 -5.658 2.224 78.015564 0.015566463
63.219002 -5.4619999 2.142 68.015579 0.01557648
63.193001 -5.27 2.0610001 65.015587 0.015586497
62.873001 -5.0539999 1.971 53.015598 0.015596514
62.633999 -4.8460002 1.885 53.015606 0.015606532
62.615002 -4.658 1.808 53.015617 0.015616548
62.632999 -4.4699998 1.73 53.015625 0.015626565
62.625 -4.2810001 1.653 55.015636 0.015636582
62.631001 -4.092 1.576 55.015648 0.015646599
62.602001 -3.904 1.499 56.015656 0.015656617
56.337002 -3.3429999 1.281 33.015667 0.015666634
56.118999 -3.1630001 1.209 47.015678 0.015676651
55.998001 -2.9860001 1.138 49.015686 0.015686667
55.977001 -2.816 1.071 49.015697 0.015696686
55.976002 -2.6459999 1.003 51.015705 0.015706701
56.036999 -2.4820001 0.93900001 51.015717 0.015716719
56.144001 -2.316 0.87400001 43.015728 0.015726736
56.379002 -2.155 0.81099999 31.015738 0.015736753
63.744999 -2.244 0.84200001 57.015747 0.015746769
67.477997 -2.1700001 0.81300002 28.015757 0.015756786
71.097 -2.0739999 0.77499998 49.015766 0.015766803
76.834 -2.0079999 0.74800003 17.015778 0.01577682
78.793999 -1.819 0.676 32.015785 0.015786838
86.206001 -1.728 0.64099997 40.015797 0.015796855
92.512001 -1.573 0.58200002 42.015808 0.015806872
100.993 -1.415 0.52200001 55.015816 0.015816888
93.880997 -1.029 0.37900001 31.015827 0.015826907
92.596001 -0.73299998 0.26899999 27.015837 0.015836922
92.427002 -0.449 0.16500001 24.015846 0.01584694
92.691002 -0.168 0.061999999 20.015858 0.015856957
0 0 0 0.015866974 0.015866974
0 0 0 0.01587699 0.01587699
0 0 0 0.015887009 0.015887009
0 0 0 0.015897024 0.015897024
0 0 0 0.015907042 0.015907042
0 0 0 0.015917059 0.015917059
95.533997 1.864 -0.66500002 23.015926 0.015927076
95.5 2.1559999 -0.76700002 26.015938 0.015937094
95.424004 2.4430001 -0.86699998 32.015945 0.015947109
95.436996 2.737 -0.96899998 30.015957 0.015957128
95.440002 3.03 -1.0700001 34.015968 0.015967144
95.459 3.325 -1.171 32.015976 0.015977161
95.428001 3.6129999 -1.27 28.015987 0.015987178
95.411003 3.9059999 -1.369 33.015999 0.015997196
95.478996 4.204 -1.469 26.016006 0.016007211
95.334999 4.4910002 -1.5650001 27.016018 0.01601723
95.295998 4.7800002 -1.6619999 24.016027 0.016027246
95.306999 5.0749998 -1.7589999 11.016037 0.016037263
0 0 0 0.01604728 0.01604728
0 0 0 0.016057298 0.016057298
0 0 0 0.016067315 0.016067315
0 0 0 0.016077332 0.016077332
0 0 0 0.01608735 0.01608735
0 0 0 0.016097365 0.016097365
0 0 0 0.016107382 0.016107382
63.716999 4.9660001 -1.683 11.016117 0.0161174
63.382999 5.1370001 -1.7359999 9.0161276 0.016127417
0 0 0 0.016137432 0.016137432
55.849998 4.8720002 -1.637 8.0161476 0.016147451
0 0 0 0.016157467 0.016157467
0 0 0 0.016167484 0.016167484
0 0 0 0.016177502 0.016177502
0 0 0 0.016187519 0.016187519
0 0 0 0.016197536 0.016197536
0 0 0 0.016207553 0.016207553
0 0 0 0.016217571 0.016217571
0 0 0 0.016227586 0.016227586
0 0 0 0.016237605 0.016237605
0 0 0 0.016247621 0.016247621
0 0 0 0.016257638 0.016257638
35.639999 4.4489999 -1.442 5.0162678 0.016267654
35.298 4.5170002 -1.46 8.0162773 0.016277673
34.861 4.572 -1.473 6.0162878 0.016287688
33.983002 4.5630002 -1.466 9.0162973 0.016297705
33.370998 4.586 -1.4680001 6.0163078 0.016307723
32.759998 4.6059999 -1.47 6.0163178 0.01631774
32.094002 4.6149998 -1.4680001 7.0163279 0.016327757
31.142 4.5749998 -1.451 7.0163379 0.016337775
31.035999 4.658 -1.473 8.0163479 0.016347792
30.079 4.6110001 -1.4529999 7.0163579 0.016357807
29.556999 4.6230001 -1.4529999 7.0163679 0.016367827
28.903 4.6139998 -1.4450001 8.0163774 0.016377842
28.358 4.6170001 -1.441 7.0163879 0.016387859
27.444 4.5560002 -1.4170001 7.016398 0.016397877
26.729 4.5219998 -1.402 7.016408 0.016407894
26.344 4.5409999 -1.403 7.016418 0.016417909
26.087999 4.5809999 -1.411 7.016428 0.016427929
25.645 4.586 -1.4069999 6.016438 0.016437944
25.148001 4.5770001 -1.4 6.016448 0.016447961
24.693001 4.573 -1.3940001 6.016458 0.016457979
24.957001 4.7030001 -1.429 6.016468 0.016467996
23.806 4.5619998 -1.381 6.0164781 0.016478013
23.483999 4.5760002 -1.381 6.0164881 0.016488029
23.702 4.6950002 -1.4119999 7.0164981 0.016498048
23.330999 4.697 -1.4069999 7.0165081 0.016508063
22.989 4.7020001 -1.404 7.0165181 0.016518081
22.673 4.711 -1.401 7.0165281 0.016528098
22.365 4.7199998 -1.399 7.0165381 0.016538115
22.118999 4.7399998 -1.4 7.0165482 0.016548131
21.881001 4.7589998 -1.4 7.0165582 0.01655815
21.639999 4.7779999 -1.4 7.0165682 0.016568165
21.393999 4.7930002 -1.4 7.0165782 0.016578183
21.127001 4.803 -1.397 8.0165882 0.0165882
20.93 4.8260002 -1.399 7.0165982 0.016598217
20.688 4.8379998 -1.397 7.0166082 0.016608234
20.466 4.8540001 -1.396 8.0166178 0.01661825
20.236 4.8649998 -1.3940001 8.0166283 0.016628269
20.059999 4.888 -1.395 8.0166388 0.016638285
19.902 4.915 -1.397 8.0166483 0.016648302
19.712999 4.934 -1.397 8.0166588 0.016658319
19.506001 4.9450002 -1.3940001 9.0166683 0.016668336
19.316 4.961 -1.393 9.0166788 0.016678352
19.117001 4.973 -1.39 10.016688 0.016688371
18.951 4.9920001 -1.39 10.016699 0.016698387
18.757999 5.0040002 -1.387 12.016708 0.016708404
18.569 5.0139999 -1.385 9.0167189 0.016718421
18.43 5.0380001 -1.385 9.0167284 0.016728438
18.226 5.0430002 -1.381 8.0167389 0.016738456
18.018999 5.0450001 -1.376 7.0167484 0.016748473
17.836 5.053 -1.372 8.0167589 0.01675849
17.657 5.0609999 -1.368 7.0167685 0.016768506
17.455 5.0609999 -1.362 7.0167785 0.016778525
12.981 3.8069999 -1.02 2.0167885 0.01678854
12.873 3.819 -1.0190001 36.0168 0.016798558
12.782 3.8340001 -1.018 38.016808 0.016808573
12.72 3.858 -1.02 39.016819 0.016818592
12.658 3.882 -1.021 38.01683 0.016828608
12.61 3.9089999 -1.024 41.016838 0.016838625
12.574 3.941 -1.027 40.01685 0.016848642
12.537 3.971 -1.03 41.016857 0.01685866
12.499 4.0009999 -1.033 42.016869 0.016868677
12.49 4.04 -1.038 42.01688 0.016878694
12.466 4.0739999 -1.0420001 43.016888 0.016888712
12.447 4.1100001 -1.046 40.016899 0.016898727
12.44 4.1490002 -1.051 40.016911 0.016908746
12.419 4.1849999 -1.0549999 40.016918 0.016918762
12.396 4.2189999 -1.058 43.01693 0.016928779
12.399 4.2620001 -1.063 41.016937 0.016938796
12.381 4.2969999 -1.067 44.016949 0.016948814
12.39 4.342 -1.072 44.01696 0.016958829
12.386 4.3829999 -1.077 43.016968 0.016968846
12.403 4.4310002 -1.0829999 42.016979 0.016978864
12.412 4.4759998 -1.0880001 41.016991 0.016988881
12.431 4.5250001 -1.094 41.016998 0.016998898
12.451 4.5749998 -1.1 41.01701 0.017008916
12.474 4.6259999 -1.1059999 40.017017 0.017018933
12.528 4.6890001 -1.115 39.017029 0.017028948
12.617 4.7659998 -1.126 33.01704 0.017038967
13.421 5.1139998 -1.202 3.0170491 0.017048983
13.324 5.1230001 -1.197 2.0170591 0.017059
13.229 5.131 -1.192 2.0170691 0.017069018
13.17 5.1539998 -1.1900001 1.017079 0.017079035
13.04 5.1459999 -1.182 0.01708905 0.01708905
12.902 5.1360002 -1.173 0.017099069 0.017099069
54.386002 21.837999 -4.9569998 10.017109 0.017109085
54.616001 22.117001 -4.9889998 9.0171194 0.017119102
54.852001 22.398001 -5.0229998 33.017128 0.017129119
55.456001 22.834 -5.0879998 70.017136 0.017139137
0 0 0 0.017149154 0.017149154
57.306999 23.985001 -5.2789998 10.017159 0.01715917
57.48 24.254 -5.303 14.017169 0.017169189
57.638 24.518 -5.3249998 15.017179 0.017179204
11.731 5.0289998 -1.085 0.017189221 0.017189221
11.632 5.026 -1.077 1.0171993 0.017199239
11.534 5.0229998 -1.069 2.0172093 0.017209256
11.433 5.0180001 -1.0599999 4.0172191 0.017219272
11.356 5.0229998 -1.054 6.0172291 0.017229291
11.255 5.0159998 -1.046 11.01724 0.017239306
11.154 5.0089998 -1.0369999 14.017249 0.017249323
11.063 5.006 -1.029 23.01726 0.017259341
10.967 4.9990001 -1.02 29.017269 0.017269358
10.889 5.0009999 -1.013 33.017281 0.017279375
10.801 4.9970002 -1.005 37.017288 0.017289393
10.718 4.9949999 -0.99699998 41.0173 0.01729941
10.551 4.9530001 -0.98100001 72.017311 0.017309425
10.453 4.9419999 -0.97100002 95.017319 0.017319443
10.45 4.9749999 -0.97000003 131.01733 0.01732946
10.44 5.006 -0.96799999 82.017342 0.017339477
10.351 4.9980001 -0.95899999 37.017349 0.017349493
10.287 5.0019999 -0.95200002 30.017359 0.017359512
10.212 4.9990001 -0.94400001 21.01737 0.017369527
10.146 5.0009999 -0.93699998 12.01738 0.017379545
10.085 5.0040002 -0.92900002 7.0173898 0.017389562
10.005 4.9980001 -0.92000002 2.0173995 0.017399579
9.9370003 4.9959998 -0.912 1.0174096 0.017409597
9.8199997 4.9699998 -0.89999998 0.017419614 0.017419614
55.784 28.419001 -5.0999999 23.017429 0.017429631
55.578999 28.497999 -5.0689998 20.017439 0.017439647
55.473 28.624001 -5.0469999 65.017448 0.017449666
55.256001 28.693001 -5.013 17.01746 0.017459681
55.116001 28.801001 -4.9840002 15.017469 0.017469699
54.888 28.861 -4.947 19.017479 0.017479716
54.757999 28.968 -4.9200001 69.017487 0.017489733
54.487999 29.000999 -4.8779998 19.0175 0.017499749
54.292 29.072001 -4.842 18.017509 0.017509766
54.015999 29.098 -4.7969999 16.017519 0.017519783
53.834 29.169001 -4.763 13.017529 0.017529801
53.634998 29.233 -4.724 11.01754 0.017539818
9.0450001 4.9580002 -0.79299998 0.017549835 0.017549835
8.993 4.9580002 -0.78399998 2.0175598 0.017559852
8.9309998 4.9520001 -0.77499998 5.01757 0.017569868
8.8830004 4.9530001 -0.76700002 9.01758 0.017579887
8.8149996 4.9429998 -0.75700003 21.01759 0.017589903
8.7670002 4.9429998 -0.74900001 26.017599 0.01759992
8.7069998 4.9359999 -0.73900002 30.017611 0.017609937
8.6630001 4.9369998 -0.73100001 45.01762 0.017619954
8.6140003 4.9359999 -0.722 50.017632 0.01762997
8.5749998 4.9390001 -0.71399999 50.017639 0.017639989
8.5319996 4.9400001 -0.70599997 49.017651 0.017650004
8.4820004 4.9359999 -0.69599998 48.017658 0.017660022
8.4429998 4.9380002 -0.68800002 42.01767 0.017670039
8.3940001 4.934 -0.67900002 27.017679 0.017680056
8.3590002 4.9380002 -0.671 22.017691 0.017690074
8.3400002 4.9510002 -0.66399997 14.0177 0.017700089
8.302 4.9530001 -0.65499997 6.0177102 0.017710108
8.2600002 4.9510002 -0.64600003 1.0177201 0.017720124
8.2449999 4.9660001 -0.639 0.017730141 0.017730141
0 0 0 0.017740158 0.017740158
0 0 0 0.017750176 0.017750176
0 0 0 0.017760191 0.017760191
0 0 0 0.01777021 0.01777021
0 0 0 0.017780226 0.017780226
0 0 0 0.017790243 0.017790243
0 0 0 0.01780026 0.01780026
0 0 0 0.017810278 0.017810278
0 0 0 0.017820295 0.017820295
0 0 0 0.017830312 0.017830312
0 0 0 0.01784033 0.01784033
0 0 0 0.017850345 0.017850345
7.7540002 4.9359999 -0.51800001 0.017860362 0.017860362
7.723 4.9349999 -0.50800002 2.0178704 0.01787038
7.677 4.9239998 -0.498 6.0178804 0.017880397
7.6389999 4.9169998 -0.48800001 15.01789 0.017890412
7.6059999 4.9130001 -0.47799999 24.0179 0.017900432
7.5799999 4.914 -0.46900001 42.01791 0.017910447
7.5489998 4.9109998 -0.45899999 45.017921 0.017920464
7.5209999 4.9099998 -0.44999999 54.017929 0.017930482
7.4970002 4.9099998 -0.44100001 57.017941 0.017940499
7.4749999 4.9120002 -0.43200001 56.017952 0.017950516
7.454 4.9130001 -0.42199999 53.01796 0.017960533
7.4310002 4.914 -0.41299999 44.017971 0.017970551
7.4159999 4.9190001 -0.40400001 42.017979 0.017980566
7.3790002 4.9089999 -0.39399999 24.01799 0.017990585
7.3330002 4.8930001 -0.38299999 15.018001 0.018000601
7.2410002 4.8449998 -0.37 42.018009 0.018010618
7.23 4.8509998 -0.361 112.01802 0.018020634
7.2280002 4.8629999 -0.352 120.01803 0.018030653
7.2179999 4.869 -0.34299999 104.01804 0.018040668
7.1680002 4.8470001 -0.333 79.018051 0.018050686
7.158 4.8530002 -0.32300001 97.018059 0.018060703
7.1529999 4.8610001 -0.31400001 94.018074 0.01807072
7.1539998 4.8730001 -0.30500001 105.01808 0.018080737
7.1560001 4.8850002 -0.29699999 99.018089 0.018090755
7.1599998 4.8990002 -0.28799999 105.0181 0.018100772
7.1570001 4.9070001 -0.27900001 106.01811 0.018110787
7.1550002 4.9159999 -0.26899999 100.01812 0.018120807
7.1550002 4.9260001 -0.25999999 102.01813 0.018130822
7.152 4.9330001 -0.25099999 81.018143 0.018140839
7.158 4.9460001 -0.241 38.01815 0.018150857
7.098 4.9130001 -0.23 12.018161 0.018160874
7.0599999 4.895 -0.22 21.018171 0.018170889
7.0500002 4.895 -0.20999999 37.018181 0.018180909
7.0450001 4.8990002 -0.2 44.018192 0.018190924
7.0250001 4.8930001 -0.19 53.0182 0.018200941
7.0190001 4.895 -0.18000001 56.018211 0.018210959
7.0040002 4.8909998 -0.17 55.018223 0.018220976
7.0019999 4.895 -0.161 53.01823 0.018230993
7 4.8990002 -0.15099999 43.018242 0.018241009
6.9970002 4.902 -0.141 38.01825 0.018251028
6.9780002 4.8940001 -0.132 20.018261 0.018261043
6.994 4.9089999 -0.122 7.018271 0.018271061
6.9920001 4.9109998 -0.112 1.0182811 0.018281078
7.0190001 4.934 -0.103 0.018291095 0.018291095
39.236 27.6 -0.52100003 18.018301 0.018301111
39.220001 27.604 -0.46700001 22.018311 0.01831113
39.198002 27.601999 -0.41100001 24.018322 0.018321145
39.234001 27.639 -0.35499999 24.018332 0.018331163
39.193001 27.618999 -0.29899999 20.018341 0.01834118
39.155998 27.6 -0.245 18.018351 0.018351197
39.141998 27.594 -0.189 15.018361 0.018361215
39.042999 27.527 -0.132 12.018372 0.01837123
39.023998 27.514 -0.075999998 8.0183811 0.018381249
88.289001 62.243999 -0.050999999 50.018391 0.018391265
88.295998 62.240002 0.075000003 51.018402 0.018401282
88.344002 62.259998 0.207 63.01841 0.018411299
88.346001 62.242001 0.33399999 62.018421 0.018421317
88.338997 62.213001 0.454 60.018433 0.018431332
88.416 62.238998 0.58099997 46.01844 0.018441351
